ply
format ascii 1.0
comment Generated by sampleExportPLY
element vertex 1910
property float x
property float y
property float z
element face 0
property list uchar int vertex_index
end_header
-0.281176 0.271608 0.741467
-0.276207 0.270408 0.739115
-0.271917 0.269849 0.738548
-0.267431 0.269078 0.737431
-0.262339 0.267666 0.734583
-0.256932 0.265887 0.730743
-0.253245 0.265863 0.73174
-0.249901 0.266203 0.733759
-0.246563 0.266561 0.735843
-0.245834 0.269792 0.745887
-0.242924 0.270693 0.749511
-0.239738 0.271309 0.752355
-0.238792 0.27452 0.762415
-0.235641 0.275259 0.76562
-0.233913 0.27771 0.773598
-0.231279 0.27915 0.778767
-0.228594 0.280577 0.783901
-0.227101 0.28354 0.793332
-0.224252 0.284885 0.798241
-0.221202 0.286018 0.802548
-0.217258 0.286014 0.803654
-0.2098 0.2813 0.791486
0 0 0
-0.179048 0.24928 0.703249
-0.175172 0.248653 0.702381
-0.171687 0.24857 0.703023
-0.167653 0.247671 0.701338
-0.16338 0.246374 0.698495
-0.159611 0.245799 0.697673
-0.15483 0.243605 0.692228
-0.150767 0.24247 0.68976
-0.147091 0.24192 0.688928
-0.143792 0.241979 0.68981
-0.139969 0.241138 0.688103
-0.135892 0.239807 0.68497
-0.132263 0.23922 0.683939
-0.128584 0.238512 0.682534
-0.125159 0.238249 0.682384
-0.121728 0.23796 0.682137
-0.118056 0.237172 0.680436
-0.113929 0.235397 0.675881
-0.110621 0.235262 0.67601
-0.107064 0.234572 0.674522
-0.103576 0.233994 0.673337
-0.100158 0.233544 0.672501
-0.0965759 0.232668 0.670416
-0.092919 0.231545 0.6676
-0.0894512 0.230831 0.66594
-0.0859727 0.230035 0.664026
-0.0826958 0.229738 0.663535
-0.0794879 0.229617 0.663535
-0.0759814 0.228588 0.660892
-0.0730774 0.229361 0.663443
-0.0694775 0.22792 0.659575
-0.0661671 0.227338 0.658175
-0.0629072 0.22688 0.657118
-0.0593987 0.225431 0.653172
-0.0561655 0.224924 0.651941
-0.0529113 0.224269 0.650266
-0.0497836 0.224102 0.649991
-0.0465644 0.223474 0.648364
-0.0433294 0.222676 0.646229
-0.0402147 0.222422 0.645659
-0.0371046 0.222153 0.645032
-0.0339086 0.221275 0.642625
-0.0307503 0.220495 0.640486
-0.0276199 0.219765 0.63848
-0.0246375 0.220176 0.63978
-0.021579 0.21993 0.639154
-0.0185029 0.219394 0.637674
-0.0154199 0.218549 0.635285
-0.0123437 0.217415 0.632042
-0.00937684 0.218098 0.634069
-0.00635021 0.217378 0.632007
-0.00334687 0.216881 0.630583
-0.00035718 0.216366 0.629092
0.00261243 0.215366 0.626179
0.00556353 0.214716 0.624273
0.00850477 0.214268 0.622945
0.0113777 0.212775 0.618563
0.0144476 0.214821 0.624461
0.0172263 0.212579 0.617882
0.0201785 0.212817 0.618501
0.0231926 0.213566 0.620594
0.0258855 0.211521 0.614553
0.0287207 0.210935 0.612744
0.0315727 0.210569 0.611561
0.0343991 0.210108 0.610093
0.0373624 0.21049 0.611058
0.0402816 0.210586 0.611182
0.0432425 0.210873 0.611846
0.0461697 0.21097 0.611946
0.0490824 0.210993 0.61182
0.0518585 0.210459 0.610064
0.0547849 0.210559 0.610136
0.0576052 0.210262 0.609042
0.0604431 0.210054 0.608197
0.0633241 0.210009 0.607806
0.0660609 0.20951 0.606089
0.0688641 0.209254 0.605065
0.0715962 0.208812 0.603486
0.074385 0.208563 0.602454
0.0772793 0.208617 0.602282
0.0802852 0.208958 0.602922
0.0829231 0.208351 0.600812
0.0857008 0.208123 0.599784
0.0884322 0.207802 0.59847
0.0919007 0.209179 0.602029
0.0942656 0.208036 0.59832
0.0963494 0.206359 0.593063
0.099174 0.206319 0.5925
0.102009 0.206302 0.591986
0.105109 0.206807 0.592951
0.108042 0.206967 0.592909
0.11072 0.20664 0.591457
0.113596 0.206692 0.59107
0.11641 0.206631 0.590343
0.119467 0.206995 0.590813
0.122308 0.206974 0.590165
0.124565 0.205991 0.586758
0.127496 0.20614 0.586561
0.130848 0.206948 0.588219
0.134106 0.207576 0.589345
0.135952 0.206039 0.584305
0.138639 0.205813 0.582975
0.141373 0.205663 0.581845
0.144082 0.205485 0.580616
0.146986 0.205586 0.580164
0.15019 0.206095 0.580844
0.153171 0.206285 0.580604
0.155962 0.206216 0.579624
0.158715 0.206101 0.578499
0.161347 0.205835 0.576942
0.163724 0.205259 0.574504
0.16625 0.204886 0.57263
0.168917 0.204696 0.571259
0.171652 0.204594 0.570128
0.174713 0.204877 0.57006
0.177757 0.205131 0.56991
0.180008 0.204477 0.567232
0.182566 0.204186 0.565569
0.185624 0.204456 0.565457
0.188338 0.204343 0.564295
0.188996 0.202036 0.557088
0 0 0
0 0 0
0 0 0
0 0 0
0 0 0
0 0 0
0.173973 0.168591 0.460374
0.176758 0.169032 0.461024
0.178991 0.168942 0.460252
0.182035 0.169609 0.461576
0.183527 0.168831 0.459005
0.184324 0.167441 0.454812
0.187472 0.168196 0.456489
0.189342 0.167799 0.455083
0.191254 0.167448 0.453847
0 0 0
0 0 0
0 0 0
0 0 0
0 0 0
0 0 0
0 0 0
0 0 0
0 0 0
0.384651 0.300513 0.814416
0 0 0
0 0 0
0 0 0
0.36402 0.272652 0.74129
0 0 0
0.368506 0.27043 0.736919
0.372822 0.270858 0.739041
0 0 0
0 0 0
0.425558 0.300156 0.822654
0.43494 0.30382 0.834096
0 0 0
0.46584 0.319258 0.87966
0.471265 0.319954 0.883286
0 0 0
0 0 0
0 0 0
0 0 0
0 0 0
0 0 0
0 0 0
0 0 0
0 0 0
0 0 0
0 0 0
0 0 0
0 0 0
-0.401296 0.286277 0.775178
-0.399594 0.287855 0.778154
-0.395408 0.287656 0.776395
-0.39008 0.286614 0.772441
-0.386287 0.286691 0.77158
-0.382576 0.28683 0.770968
-0.378233 0.286494 0.769157
-0.373346 0.285734 0.766293
-0.367823 0.284467 0.762159
-0.365505 0.285678 0.764749
-0.361585 0.285649 0.764103
-0.356964 0.285059 0.762046
-0.353263 0.2852 0.76203
-0.350913 0.286446 0.765055
-0.347421 0.286778 0.765725
-0.342064 0.28556 0.762348
-0.33901 0.286259 0.764175
-0.332915 0.284377 0.759199
-0.328831 0.284189 0.758831
-0.325333 0.284508 0.759903
-0.320292 0.283469 0.757431
-0.31453 0.281759 0.753239
-0.30868 0.279928 0.748797
-0.305398 0.280408 0.750608
-0.301902 0.280701 0.751991
-0.29659 0.279292 0.748878
-0.290949 0.277533 0.744877
-0.28703 0.277392 0.745275
-0.283867 0.277987 0.747704
-0.277439 0.275358 0.741504
-0.272973 0.274631 0.740458
-0.268829 0.274211 0.740278
-0.264309 0.273392 0.739049
-0.25867 0.271374 0.734601
-0.254161 0.270502 0.733267
-0.250326 0.270331 0.733854
-0.248125 0.271947 0.739313
-0.245527 0.273169 0.743729
-0.242994 0.274503 0.748466
-0.240278 0.275668 0.752761
-0.238733 0.278235 0.760903
-0.237242 0.280948 0.769467
-0.235011 0.282859 0.77585
-0.232224 0.284154 0.780551
-0.229834 0.285987 0.786733
-0.227236 0.287619 0.792369
-0.225144 0.289959 0.799957
-0.222457 0.291605 0.805632
-0.218879 0.29212 0.808175
-0.21384 0.290668 0.805255
0 0 0
0 0 0
-0.176849 0.254494 0.707823
-0.172958 0.253861 0.706949
-0.169633 0.254049 0.708345
-0.164271 0.251131 0.701049
-0.160147 0.250023 0.69877
-0.155412 0.247891 0.693602
-0.151161 0.246454 0.690345
-0.147942 0.246673 0.691704
-0.144244 0.246084 0.690775
-0.140862 0.24602 0.691297
-0.137132 0.24533 0.690039
-0.132405 0.242778 0.683514
-0.129005 0.242591 0.683619
-0.125598 0.24238 0.683635
-0.122217 0.242208 0.68374
-0.11919 0.24275 0.685842
-0.115217 0.241339 0.682407
-0.111128 0.239596 0.678006
-0.107736 0.239297 0.677666
-0.104329 0.238943 0.677152
-0.100827 0.238343 0.675921
-0.0971746 0.237336 0.673514
-0.0935444 0.236316 0.671048
-0.0903631 0.236398 0.671691
-0.0867815 0.235399 0.669246
-0.0832608 0.234495 0.667053
-0.0799899 0.234252 0.666717
-0.0767307 0.234024 0.666409
-0.0731839 0.23286 0.663421
-0.0697213 0.231872 0.660912
-0.0664214 0.231357 0.659734
-0.0634942 0.232153 0.662282
-0.0598659 0.230335 0.657355
-0.056514 0.229439 0.655041
-0.053137 0.22833 0.652103
-0.0499705 0.228044 0.651502
-0.0468012 0.227706 0.650737
-0.0436662 0.2275 0.650333
-0.0404439 0.226772 0.648426
-0.0373185 0.226513 0.647843
-0.0341335 0.225813 0.645987
-0.0309602 0.225059 0.643963
-0.0278542 0.224683 0.643004
-0.0247967 0.224654 0.643027
-0.0216752 0.223954 0.641119
-0.0185519 0.223006 0.638485
-0.0155574 0.223537 0.640074
-0.0124638 0.222557 0.637322
-0.00941649 0.222038 0.635881
-0.00638419 0.221553 0.634522
-0.00336083 0.220787 0.632349
-0.000358741 0.220306 0.63098
0.00263143 0.219922 0.629874
0.0056067 0.219363 0.628258
0.00857862 0.219107 0.627496
0.0115335 0.218659 0.626173
0.0144584 0.217944 0.624073
0.0173918 0.217579 0.622962
0.0203003 0.217052 0.62138
0.0232114 0.216685 0.62024
0.0261427 0.216567 0.619803
0.0289377 0.215457 0.616517
0.0319133 0.215774 0.617299
0.0349691 0.216533 0.619336
0.0377905 0.215836 0.617193
0.0409999 0.217296 0.621205
0.0436586 0.215836 0.616859
0.0465318 0.215555 0.615867
0.0492677 0.214708 0.61325
0.052172 0.214649 0.612869
0.0550518 0.214501 0.612221
0.057916 0.214309 0.611437
0.0607979 0.214199 0.61087
0.0635495 0.213661 0.609069
0.0665987 0.214126 0.610116
0.0691573 0.213041 0.606732
0.0721466 0.213317 0.60721
0.0750445 0.213312 0.606873
0.0778453 0.213041 0.605765
0.0805668 0.212581 0.604105
0.0833469 0.212301 0.602945
0.0862613 0.212371 0.602762
0.0891972 0.212488 0.602696
0.0919569 0.212191 0.601439
0.0949178 0.212362 0.601494
0.0975905 0.211897 0.599732
0.0998852 0.210662 0.595776
0.102768 0.2107 0.595409
0.105587 0.210612 0.594666
0.108664 0.211026 0.595324
0.111336 0.210654 0.593749
0.114226 0.210704 0.593345
0.116982 0.210509 0.592235
0.119866 0.210547 0.591762
0.122942 0.210915 0.592198
0.125746 0.210809 0.591287
0.128333 0.210352 0.589374
0.131158 0.210297 0.588572
0.134271 0.210696 0.589021
0.137087 0.210623 0.588133
0.139117 0.209368 0.583933
0.141909 0.209288 0.582998
0.144898 0.209496 0.582848
0.147651 0.209362 0.581729
0.151057 0.210142 0.583134
0.153881 0.210097 0.582233
0.156566 0.209868 0.580809
0.160028 0.21067 0.582223
0.162184 0.209754 0.57888
0.164121 0.208592 0.574854
0.166703 0.208276 0.573155
0.169736 0.208523 0.572999
0.172221 0.208101 0.570999
0.176424 0.209734 0.574629
0.178817 0.209198 0.57231
0.180911 0.208336 0.569101
0.183213 0.207734 0.566614
0.186099 0.207803 0.565963
0.188595 0.207442 0.564148
0.187424 0.203117 0.551582
0 0 0
0.170322 0.1793 0.485521
0 0 0
0.169656 0.17363 0.468891
0.169706 0.171297 0.461991
0.171601 0.170866 0.460254
0.173825 0.170769 0.459447
0.173775 0.16847 0.452751
0.175305 0.167743 0.450318
0.176126 0.166364 0.446178
0.177785 0.165802 0.44427
0.180147 0.165902 0.444174
0.184192 0.16753 0.448209
0.18648 0.16754 0.447952
0.188516 0.167325 0.447142
0.191788 0.1682 0.44929
0.192428 0.166773 0.445339
0.198062 0.169657 0.452946
0 0 0
0 0 0
0 0 0
0 0 0
0 0 0
0 0 0
0 0 0
0 0 0
0.342386 0.265463 0.711089
0 0 0
0.359609 0.273061 0.732897
0.380347 0.285857 0.768127
0 0 0
0.397978 0.293119 0.789702
0 0 0
0 0 0
0 0 0
0 0 0
0 0 0
0.47293 0.328584 0.894231
0 0 0
0 0 0
0 0 0
0 0 0
0 0 0
0 0 0
0 0 0
0 0 0
0 0 0
0 0 0
0 0 0
0 0 0
0 0 0
0 0 0
-0.403891 0.292045 0.781163
-0.400586 0.292492 0.781017
-0.396534 0.292396 0.779492
-0.391922 0.291882 0.776927
-0.385729 0.290168 0.77125
-0.382013 0.290301 0.770567
-0.379545 0.291396 0.772508
-0.376344 0.291944 0.773076
-0.373331 0.292651 0.774144
-0.365766 0.289768 0.7658
-0.365714 0.292838 0.773276
-0.356861 0.288851 0.762203
-0.353969 0.289654 0.763864
-0.351439 0.290775 0.766446
-0.348537 0.29161 0.768358
-0.345171 0.292071 0.769372
-0.339747 0.290782 0.765864
-0.335769 0.290713 0.765659
-0.329984 0.289061 0.761369
-0.326703 0.28959 0.762906
-0.322615 0.289406 0.76265
-0.315938 0.286867 0.756266
-0.311599 0.286415 0.755458
-0.307287 0.285978 0.754761
-0.302843 0.285404 0.753776
-0.297439 0.2839 0.750396
-0.292484 0.28279 0.748118
-0.288572 0.282673 0.748523
-0.28599 0.283873 0.752475
-0.277821 0.279485 0.741658
-0.274605 0.280028 0.743961
-0.271385 0.280581 0.746338
-0.265223 0.278066 0.740585
-0.259923 0.276396 0.737103
-0.256661 0.276876 0.739377
-0.252981 0.276912 0.740494
-0.248398 0.275946 0.73895
-0.246177 0.277615 0.744482
-0.243275 0.278556 0.748081
-0.240434 0.279596 0.751968
-0.238251 0.281448 0.758053
-0.237004 0.284481 0.767344
-0.235378 0.287152 0.775682
-0.232989 0.288965 0.781714
-0.230064 0.290163 0.786092
-0.228025 0.29254 0.793667
-0.225329 0.294142 0.799147
-0.22261 0.295772 0.804703
-0.2191 0.296389 0.807497
-0.215176 0.296459 0.808788
-0.209247 0.293718 0.802383
0 0 0
-0.17877 0.260756 0.714192
-0.174411 0.259473 0.711577
-0.170904 0.259432 0.712342
-0.166844 0.258531 0.710727
-0.162934 0.257832 0.709637
-0.158956 0.256991 0.708136
-0.15367 0.253951 0.700543
-0.149924 0.253375 0.699714
-0.145402 0.251433 0.695086
-0.142225 0.251778 0.696754
-0.138204 0.250609 0.694212
-0.13312 0.247407 0.686005
-0.129988 0.247761 0.687629
-0.126255 0.24696 0.686029
-0.123028 0.24713 0.687104
-0.119707 0.247117 0.687649
-0.115963 0.246205 0.685674
-0.111812 0.244349 0.681042
-0.108255 0.243718 0.679802
-0.104823 0.243339 0.679242
-0.101362 0.242866 0.678402
-0.0978176 0.242155 0.676873
-0.0941992 0.241205 0.674658
-0.0907895 0.240742 0.673783
-0.0873378 0.240128 0.67247
-0.0837752 0.239152 0.670119
-0.0805599 0.239128 0.67042
-0.077028 0.238124 0.667954
-0.0733179 0.236458 0.663611
-0.0701035 0.236312 0.663517
-0.0667294 0.235589 0.661785
-0.0635472 0.235505 0.661832
-0.060254 0.23498 0.660622
-0.0570217 0.234647 0.659937
-0.0537196 0.233971 0.658274
-0.0502723 0.23254 0.654467
-0.0473122 0.233322 0.656874
-0.0441601 0.233201 0.656726
-0.0408369 0.232089 0.653773
-0.0376246 0.231475 0.652209
-0.0343341 0.230227 0.648842
-0.0312826 0.230494 0.64973
-0.0280983 0.229733 0.647708
-0.0249463 0.229081 0.645977
-0.0217858 0.228158 0.64347
-0.0187063 0.227919 0.64288
-0.0155782 0.226878 0.640015
-0.0125403 0.226966 0.64032
-0.00947964 0.226566 0.639237
-0.00643309 0.226285 0.638475
-0.00338408 0.225337 0.635822
-0.000360686 0.224512 0.633501
0.00264708 0.224237 0.632721
0.00565569 0.224288 0.632849
0.0085875 0.222316 0.627254
0.011574 0.222412 0.627483
0.0145701 0.222613 0.627999
0.0174108 0.220777 0.622752
0.0203757 0.22082 0.622797
0.0232978 0.220447 0.621656
0.026189 0.219899 0.620008
0.0291411 0.219921 0.619956
0.0321919 0.220616 0.621787
0.0352411 0.221184 0.623247
0.0382186 0.221248 0.623275
0.0410356 0.220441 0.620835
0.0439596 0.220278 0.620198
0.0467544 0.21953 0.6179
0.0495969 0.219081 0.616431
0.0528403 0.220354 0.619793
0.0554641 0.219045 0.61588
0.0583328 0.218786 0.614908
0.0611096 0.218224 0.613069
0.0640745 0.218354 0.613162
0.0669254 0.218101 0.612165
0.0697285 0.217721 0.610796
0.072466 0.217174 0.608947
0.0754349 0.217336 0.609072
0.0781634 0.216819 0.607279
0.0809711 0.216552 0.60617
0.0838911 0.216593 0.605909
0.0868958 0.216842 0.606214
0.0895238 0.216165 0.603917
0.0923547 0.216006 0.60305
0.0951625 0.215804 0.602048
0.0980252 0.215734 0.6014
0.100947 0.215796 0.601102
0.104145 0.216427 0.602368
0.10697 0.216271 0.601429
0.109547 0.215633 0.599132
0.112091 0.214967 0.596744
0.114746 0.21454 0.595007
0.117484 0.214285 0.59373
0.120317 0.214212 0.592941
0.123451 0.214667 0.593595
0.126236 0.214508 0.592531
0.128635 0.213713 0.589697
0.131398 0.213546 0.588582
0.134265 0.213551 0.587926
0.137523 0.214164 0.588923
0.141068 0.215191 0.591038
0.144009 0.215273 0.590539
0.145679 0.21349 0.584912
0.148518 0.213455 0.584067
0.151496 0.213617 0.583747
0.154629 0.213988 0.583983
0.157635 0.214172 0.583693
0.160484 0.214142 0.582808
0.163281 0.214043 0.581724
0.166335 0.21428 0.581544
0.168594 0.213501 0.578603
0.171447 0.213488 0.577733
0.174163 0.213308 0.576408
0.176783 0.213018 0.574785
0.179631 0.213007 0.573917
0.181439 0.211784 0.569788
0.18361 0.211014 0.566892
0.185939 0.210448 0.564552
0.183501 0.204582 0.548033
0 0 0
0 0 0
0.165959 0.177082 0.472398
0.164774 0.173337 0.461799
0.165509 0.171688 0.456822
0.166796 0.170649 0.4535
0.166916 0.168461 0.447159
0.168475 0.167762 0.44481
0.171284 0.168313 0.445802
0.17314 0.167924 0.444339
0.174316 0.166893 0.441215
0.176719 0.167049 0.441269
0.178413 0.166539 0.439605
0.180641 0.166533 0.439313
0.18445 0.167968 0.442863
0.187242 0.168454 0.443953
0.189094 0.168091 0.442854
0.191045 0.167825 0.442056
0.192944 0.16752 0.441205
0.195529 0.16781 0.441972
0.198629 0.168531 0.443924
0.203262 0.170521 0.44927
0 0 0
0 0 0
0 0 0
0 0 0
0 0 0
0.337334 0.265102 0.701103
0 0 0
0 0 0
0.372863 0.284042 0.75372
0 0 0
0 0 0
0 0 0
0 0 0
0 0 0
0 0 0
0 0 0
0 0 0
0 0 0
0 0 0
0 0 0
0 0 0
0 0 0
0 0 0
0 0 0
0 0 0
0 0 0
0 0 0
0 0 0
0 0 0
0 0 0
0 0 0
-0.407354 0.2985 0.788884
-0.403201 0.298349 0.787097
-0.39831 0.297645 0.78392
-0.392679 0.296368 0.779314
-0.387385 0.295322 0.775399
-0.382064 0.294234 0.771454
-0.381226 0.296612 0.776668
-0.378493 0.297549 0.778176
-0.374372 0.297403 0.77693
-0.370613 0.297545 0.776517
-0.362707 0.294325 0.767419
-0.362012 0.29695 0.773647
-0.356373 0.295533 0.769425
-0.351206 0.29448 0.766242
-0.349475 0.296316 0.770662
-0.346197 0.296868 0.771824
-0.341709 0.296383 0.770377
-0.33562 0.294482 0.765337
-0.332664 0.295317 0.767493
-0.328065 0.294697 0.765952
-0.323115 0.293742 0.763623
-0.318767 0.293318 0.762754
-0.313268 0.291812 0.759148
-0.309114 0.291536 0.758817
-0.303497 0.289856 0.754901
-0.298179 0.288423 0.751693
-0.293278 0.28736 0.749511
-0.291228 0.289101 0.754706
-0.286892 0.288587 0.754077
-0.282994 0.288507 0.754634
-0.276144 0.285374 0.747247
-0.272602 0.28562 0.748746
-0.268578 0.28536 0.748961
-0.262139 0.28249 0.742352
-0.259101 0.283256 0.745324
-0.254405 0.282206 0.743542
-0.250544 0.282064 0.744176
-0.246816 0.282069 0.745217
-0.243797 0.282897 0.748453
-0.240803 0.283782 0.751856
-0.238529 0.285554 0.757632
-0.236005 0.287082 0.762775
-0.233477 0.288653 0.768051
-0.233823 0.29389 0.783105
-0.230807 0.295006 0.787201
-0.227658 0.295987 0.790941
-0.225389 0.298167 0.797887
-0.222132 0.299094 0.801482
-0.219126 0.3004 0.806088
-0.215279 0.300579 0.807663
-0.211587 0.300986 0.809839
0 0 0
-0.181888 0.268862 0.725289
-0.176148 0.265572 0.71732
-0.171443 0.26374 0.713255
-0.167503 0.263034 0.712207
-0.163604 0.262364 0.711233
-0.159717 0.261683 0.710208
-0.155648 0.26067 0.708254
-0.150917 0.258474 0.703058
-0.14776 0.258936 0.705068
-0.143754 0.257897 0.702966
-0.139411 0.256188 0.699013
-0.135333 0.254893 0.696159
-0.131999 0.254969 0.697027
-0.128196 0.25412 0.695345
-0.123983 0.252388 0.691221
-0.120192 0.251445 0.68923
-0.116311 0.250254 0.686537
-0.112345 0.248806 0.683111
-0.108476 0.247491 0.680027
-0.105129 0.247323 0.680072
-0.101641 0.246801 0.679123
-0.0980993 0.246109 0.677688
-0.0946665 0.245653 0.67688
-0.0912305 0.245155 0.67594
-0.0876 0.24408 0.673385
-0.084264 0.243773 0.672933
-0.0809027 0.243366 0.672186
-0.0774978 0.242789 0.670949
-0.0738112 0.241242 0.667011
-0.0707712 0.241763 0.668776
-0.0675764 0.241779 0.66913
-0.0638897 0.23995 0.664357
-0.0605787 0.239414 0.663148
-0.0572524 0.238756 0.661581
-0.0540108 0.238394 0.660822
-0.0507108 0.237714 0.659164
-0.047681 0.238294 0.660984
-0.0443249 0.23721 0.658175
-0.0410522 0.236441 0.656224
-0.0379019 0.236309 0.656026
-0.0347147 0.235901 0.65505
-0.0313298 0.233937 0.649734
-0.0282119 0.233755 0.649355
-0.0250272 0.232906 0.647109
-0.0218936 0.232361 0.645693
-0.0187872 0.231974 0.644703
-0.0157352 0.232239 0.645511
-0.0126159 0.231396 0.643229
-0.00952599 0.230727 0.641414
-0.00646045 0.230294 0.640245
-0.00340893 0.230036 0.639546
-0.000362773 0.228839 0.636228
0.00266798 0.229039 0.636778
0.00570016 0.229083 0.636885
0.0086931 0.228068 0.63403
0.0116904 0.227661 0.632857
0.0147764 0.228793 0.635948
0.0177365 0.227923 0.633462
0.0207065 0.227415 0.631968
0.0236157 0.226452 0.629201
0.0263514 0.22423 0.622922
0.0293494 0.224464 0.623454
0.0323502 0.224674 0.623906
0.0354657 0.225579 0.626274
0.0383581 0.225033 0.624603
0.0412082 0.224337 0.622501
0.0442249 0.22458 0.622991
0.0473912 0.225504 0.625356
0.0502434 0.224913 0.623505
0.0529019 0.223569 0.619556
0.0557844 0.223264 0.618473
0.0586118 0.222781 0.616882
0.061935 0.224138 0.620372
0.064258 0.221916 0.613945
0.0673861 0.222548 0.615399
0.0706132 0.22344 0.617554
0.0730032 0.221718 0.612473
0.0756728 0.220946 0.610001
0.0789704 0.221996 0.612546
0.0811506 0.219942 0.606514
0.0847014 0.221617 0.610747
0.0880456 0.222657 0.613211
0.0901516 0.220601 0.607131
0.0931013 0.220672 0.606896
0.0956799 0.219887 0.60429
0.0985512 0.219801 0.603589
0.10173 0.220386 0.604714
0.104422 0.219913 0.602919
0.107196 0.219634 0.601643
0.110153 0.219733 0.601383
0.113081 0.219774 0.600947
0.115204 0.218284 0.596311
0.118153 0.218396 0.596038
0.121017 0.218349 0.595313
0.123886 0.218312 0.594601
0.126987 0.218678 0.594965
0.12981 0.218558 0.593992
0.132528 0.218271 0.592549
0.135413 0.218265 0.591854
0.138098 0.217944 0.590286
0.141286 0.218413 0.590846
0.144255 0.218532 0.59044
0.14657 0.217676 0.587388
0.148845 0.216794 0.584257
0.15212 0.217373 0.585052
0.155643 0.21828 0.586714
0.15835 0.21803 0.585251
0.160829 0.21748 0.582973
0.163847 0.217666 0.582662
0.166504 0.217374 0.581067
0.169689 0.21777 0.581301
0.172238 0.217349 0.579352
0.174688 0.21682 0.577116
0.177464 0.216706 0.575987
0.179381 0.215564 0.572129
0.181567 0.214775 0.569223
0.181005 0.21081 0.557922
0 0 0
0 0 0
0 0 0
0.158785 0.174192 0.458489
0.16026 0.173294 0.455536
0.161991 0.172695 0.453391
0.163276 0.171643 0.450085
0.163323 0.169337 0.443525
0.165331 0.169098 0.442414
0.166553 0.168073 0.439279
0.168244 0.167542 0.43747
0.170386 0.167469 0.43689
0.172695 0.167558 0.436773
0.174797 0.167447 0.43617
0.177427 0.167839 0.436916
0.179807 0.167988 0.437069
0.181618 0.167608 0.435891
0.18241 0.166308 0.432368
0.185584 0.167184 0.434548
0.188829 0.168103 0.436885
0.190855 0.167928 0.436427
0.192863 0.167742 0.435987
0.195358 0.167979 0.436696
0.197691 0.168072 0.43708
0.20041 0.168488 0.438355
0.202653 0.168499 0.438625
0.209199 0.172048 0.448161
0 0 0
0 0 0
0 0 0
0 0 0
0 0 0
0 0 0
0 0 0
0.360511 0.272742 0.716926
0.366325 0.274394 0.722401
0.377478 0.279972 0.738311
0.382869 0.28121 0.742872
0.392187 0.285282 0.755006
0 0 0
0 0 0
0 0 0
0 0 0
0 0 0
0 0 0
0 0 0
0 0 0
0 0 0
0 0 0
0 0 0
0 0 0
0 0 0
0 0 0
0 0 0
0 0 0
-0.405318 0.300938 0.786
-0.404206 0.303051 0.790087
-0.400408 0.303173 0.789036
-0.39399 0.301292 0.782853
-0.387945 0.299663 0.777406
-0.384573 0.300086 0.77736
-0.381377 0.300656 0.777766
-0.378705 0.301656 0.779352
-0.375912 0.302579 0.780812
-0.370742 0.301588 0.777412
-0.367167 0.301887 0.777421
-0.363935 0.302478 0.778261
-0.358334 0.301092 0.774096
-0.354175 0.300899 0.773088
-0.349774 0.300494 0.77162
-0.346568 0.301119 0.772879
-0.341538 0.300155 0.770148
-0.337302 0.299874 0.769254
-0.333668 0.300128 0.769818
-0.32935 0.299766 0.768884
-0.324869 0.299245 0.767625
-0.319895 0.298252 0.765236
-0.315475 0.297756 0.764201
-0.31038 0.296604 0.761557
-0.306592 0.296688 0.762159
-0.300469 0.294484 0.756953
-0.297379 0.295235 0.759408
-0.292752 0.294459 0.758001
-0.288742 0.294292 0.75822
-0.283864 0.293224 0.75617
-0.277723 0.290804 0.750681
-0.273919 0.290797 0.751463
-0.27026 0.290947 0.752695
-0.265317 0.289699 0.750348
-0.260198 0.28822 0.74743
-0.255854 0.287569 0.746684
-0.251661 0.28707 0.746357
-0.247765 0.286901 0.746907
-0.244069 0.286961 0.748076
-0.241506 0.288376 0.752798
-0.239032 0.289944 0.757941
-0.236234 0.291162 0.762189
-0.235229 0.294668 0.772449
-0.232899 0.296602 0.778612
-0.230725 0.298803 0.785492
-0.228331 0.30079 0.79182
-0.225809 0.302676 0.797894
-0.222823 0.303996 0.802478
-0.21896 0.304145 0.803968
-0.215831 0.305338 0.808209
-0.212607 0.306439 0.812202
-0.208151 0.305773 0.811497
0 0 0
-0.177658 0.271393 0.722097
-0.172894 0.269493 0.71793
-0.168449 0.268021 0.714875
-0.16437 0.267081 0.713214
-0.160587 0.266592 0.712735
-0.156513 0.265587 0.710853
-0.152328 0.264345 0.708308
-0.148163 0.26308 0.705677
-0.144476 0.262623 0.705189
-0.140361 0.261348 0.702481
-0.136352 0.260212 0.700117
-0.132562 0.259445 0.698723
-0.128771 0.258636 0.697193
-0.125108 0.25805 0.69624
-0.121796 0.258172 0.697177
-0.117182 0.255466 0.690449
-0.113252 0.254134 0.68741
-0.109713 0.253627 0.686577
-0.106532 0.253941 0.687946
-0.102513 0.252212 0.683762
-0.0988762 0.251341 0.681879
-0.0950623 0.249944 0.678548
-0.0915511 0.249273 0.677163
-0.0882307 0.24909 0.677088
-0.084721 0.248339 0.675447
-0.0813258 0.247877 0.674574
-0.0776011 0.24633 0.670729
-0.0740935 0.245369 0.668459
-0.0709658 0.245635 0.669516
-0.0678094 0.245823 0.670343
-0.0643928 0.24504 0.668504
-0.0608074 0.243499 0.664579
-0.0573798 0.242454 0.661991
-0.054103 0.241962 0.660894
-0.0510221 0.242338 0.662156
-0.0477712 0.241904 0.661188
-0.0444847 0.241216 0.659508
-0.0412276 0.240594 0.657995
-0.0380379 0.240295 0.657351
-0.0348342 0.239846 0.65628
-0.0315919 0.239016 0.654154
-0.0282763 0.237389 0.64983
-0.025266 0.23824 0.652275
-0.022107 0.237731 0.650981
-0.0189583 0.237184 0.649573
-0.0158103 0.236435 0.647595
-0.0127182 0.23636 0.64745
-0.00960569 0.235736 0.645791
-0.0065131 0.235244 0.644475
-0.0034173 0.233652 0.640136
-0.000365449 0.233579 0.639943
0.00268314 0.233388 0.639417
0.00572549 0.233147 0.638737
0.00874778 0.232539 0.637042
0.0117952 0.232742 0.637554
0.0148113 0.232369 0.636476
0.017776 0.231453 0.633896
0.0207386 0.230781 0.631973
0.0237465 0.230719 0.631709
0.0267018 0.230218 0.630228
0.0296483 0.22975 0.628825
0.0327399 0.230389 0.630439
0.0357025 0.23009 0.629472
0.0385373 0.229077 0.626538
0.0414557 0.228671 0.625253
0.0445309 0.229127 0.626311
0.0474914 0.228972 0.625685
0.0503862 0.228537 0.624281
0.053177 0.227706 0.62178
0.056087 0.227446 0.620827
0.0592525 0.228196 0.622616
0.0620069 0.227367 0.620082
0.0648841 0.227044 0.618913
0.067893 0.22719 0.619008
0.0707008 0.226678 0.617297
0.0734993 0.226179 0.615607
0.0763152 0.22577 0.614149
0.0792704 0.225788 0.613836
0.0824589 0.226446 0.615246
0.0855203 0.226721 0.615598
0.0883994 0.226511 0.614616
0.0912586 0.226265 0.613522
0.0939686 0.225676 0.611483
0.0966802 0.225126 0.609536
0.0996463 0.225184 0.609219
0.102169 0.224265 0.606242
0.105137 0.224348 0.605962
0.107955 0.224116 0.604812
0.111109 0.224574 0.605505
0.113604 0.223712 0.602624
0.116469 0.223602 0.601757
0.119046 0.222959 0.599436
0.121789 0.22265 0.598003
0.124726 0.222701 0.597519
0.127827 0.223038 0.597783
0.130872 0.223262 0.597727
0.133404 0.222621 0.595342
0.135852 0.22187 0.59265
0.138887 0.22209 0.592536
0.141897 0.222261 0.592276
0.144316 0.221518 0.58957
0.147841 0.222468 0.591355
0.151149 0.223063 0.592175
0.153479 0.222218 0.589165
0.156172 0.221921 0.587597
0.15843 0.221027 0.584445
0.16136 0.221086 0.583806
0.16485 0.221897 0.585142
0.167657 0.221777 0.584015
0.170158 0.221262 0.581848
0.172745 0.220874 0.580015
0.17524 0.220384 0.577915
0.177428 0.21953 0.574868
0.178118 0.216879 0.567131
0 0 0
0 0 0
0 0 0
0 0 0
0.155529 0.175425 0.455637
0.156896 0.174397 0.452393
0.157654 0.172732 0.447521
0.15889 0.17163 0.44414
0.160259 0.170701 0.441234
0.162198 0.170396 0.439969
0.163169 0.169095 0.436168
0.16521 0.168924 0.435314
0.167488 0.168997 0.435119
0.169578 0.168879 0.434472
0.171561 0.168661 0.433601
0.1734 0.168308 0.432424
0.175481 0.168195 0.431905
0.178604 0.169072 0.433968
0.180337 0.168628 0.432684
0.182175 0.168291 0.431718
0.184227 0.168157 0.431321
0.186971 0.168652 0.432581
0.189279 0.168746 0.432861
0.191381 0.168656 0.432716
0.193694 0.168752 0.433096
0.196496 0.169267 0.434599
0.198307 0.168927 0.433954
0.200056 0.168541 0.43324
0.202179 0.168476 0.433394
0.208126 0.171564 0.441715
0.213127 0.173815 0.44794
0.216876 0.175009 0.451493
0 0 0
0 0 0
0 0 0
0 0 0
0.353924 0.271302 0.704661
0.365169 0.277148 0.721014
0.369837 0.277935 0.724301
0.377828 0.281181 0.734074
0.388032 0.285994 0.74804
0.395136 0.288454 0.755944
0 0 0
0 0 0
0 0 0
0 0 0
0 0 0
0 0 0
0 0 0
0 0 0
0 0 0
0 0 0
0 0 0
0 0 0
0 0 0
0 0 0
0 0 0
-0.412597 0.310343 0.801238
-0.40388 0.306762 0.79052
-0.398539 0.305699 0.78638
-0.395079 0.306072 0.786003
-0.389338 0.304667 0.781134
-0.38553 0.304762 0.780185
-0.382291 0.305313 0.780472
-0.379019 0.305849 0.780789
-0.376204 0.306769 0.782159
-0.372221 0.306745 0.781196
-0.367802 0.306359 0.779389
-0.363828 0.306339 0.778595
-0.360622 0.306971 0.779537
-0.35567 0.306116 0.776784
-0.352435 0.306735 0.777856
-0.346468 0.304964 0.772952
-0.342039 0.304521 0.7715
-0.338559 0.304923 0.772271
-0.334994 0.305257 0.772954
-0.330803 0.305021 0.772277
-0.326627 0.304794 0.771706
-0.322462 0.304572 0.771226
-0.316463 0.30259 0.766368
-0.312008 0.302054 0.76525
-0.307724 0.301671 0.764593
-0.302198 0.300047 0.760858
-0.298538 0.300257 0.761845
-0.294664 0.300254 0.762357
-0.291371 0.300851 0.764457
-0.283327 0.296492 0.754016
-0.279005 0.295962 0.753358
-0.275168 0.295939 0.754039
-0.271445 0.29604 0.755086
-0.266799 0.295123 0.753575
-0.260877 0.292746 0.74837
-0.257412 0.293099 0.750169
-0.253997 0.293519 0.752174
-0.249679 0.292893 0.751524
-0.244627 0.291373 0.748598
-0.242865 0.293786 0.755798
-0.240394 0.295404 0.760982
-0.237435 0.296464 0.764751
-0.235549 0.298923 0.772148
-0.233881 0.301742 0.780503
-0.230633 0.302585 0.783758
-0.229054 0.305684 0.792873
-0.226338 0.307348 0.798281
-0.223819 0.309343 0.804557
-0.220291 0.309991 0.80733
-0.216321 0.310028 0.808507
-0.213099 0.31116 0.81253
-0.209684 0.312049 0.815912
0 0 0
0 0 0
-0.174301 0.275234 0.722378
-0.170163 0.274283 0.720757
-0.165593 0.272581 0.717138
-0.161452 0.271528 0.715199
-0.157269 0.270355 0.712919
-0.152898 0.268799 0.709601
-0.14865 0.267391 0.70665
-0.145101 0.267204 0.7069
-0.141593 0.267085 0.70731
-0.137439 0.265712 0.704374
-0.13364 0.264972 0.703094
-0.129493 0.263483 0.6998
-0.126367 0.264051 0.701946
-0.122388 0.262816 0.699279
-0.118431 0.26156 0.696533
-0.114522 0.26034 0.693855
-0.110583 0.258976 0.690768
-0.106892 0.258126 0.68903
-0.103681 0.258417 0.690317
-0.0998272 0.257072 0.687216
-0.095915 0.25548 0.683428
-0.0919751 0.253698 0.679107
-0.0885424 0.253235 0.678296
-0.0852889 0.253269 0.678797
-0.0816568 0.252136 0.676153
-0.0784445 0.25226 0.676859
-0.07543 0.253057 0.679358
-0.0714713 0.250616 0.673143
-0.0680977 0.250093 0.67206
-0.0646206 0.249119 0.669745
-0.0612441 0.248451 0.668237
-0.0575482 0.246341 0.662832
-0.0542763 0.245907 0.661917
-0.0511437 0.246088 0.662643
-0.0479556 0.24601 0.662654
-0.0446658 0.245361 0.661113
-0.0413456 0.244434 0.658806
-0.0381222 0.243973 0.65774
-0.0349623 0.243872 0.657631
-0.031734 0.243227 0.656039
-0.0285806 0.243077 0.655769
-0.0253306 0.241969 0.652896
-0.0221827 0.241661 0.65217
-0.0190152 0.241004 0.650487
-0.0158607 0.240286 0.648625
-0.0127288 0.239646 0.646961
-0.00961991 0.239169 0.645721
-0.00650967 0.238191 0.643116
-0.00344064 0.238321 0.643488
-0.000367384 0.237882 0.642312
0.00269214 0.23723 0.640545
0.00574767 0.237107 0.640194
0.00881354 0.237347 0.640813
0.0118779 0.237433 0.640999
0.0149088 0.236953 0.639644
0.0178679 0.235689 0.63616
0.0208906 0.23551 0.635591
0.023811 0.234368 0.632412
0.0268064 0.234139 0.631683
0.0298154 0.234063 0.631354
0.0328929 0.23449 0.632365
0.035862 0.234136 0.63126
0.0388155 0.233744 0.630038
0.0418505 0.233864 0.630181
0.0446588 0.232786 0.627082
0.0476694 0.232832 0.626999
0.0506176 0.232586 0.626114
0.0533918 0.231612 0.623258
0.0564355 0.231849 0.623645
0.0593594 0.231594 0.622697
0.0624235 0.231885 0.623199
0.0653636 0.231709 0.622433
0.0681261 0.230947 0.620077
0.0709475 0.23044 0.618392
0.0736911 0.229731 0.616153
0.0766277 0.229655 0.615597
0.0798798 0.230496 0.61748
0.0832067 0.231484 0.619739
0.0858948 0.230688 0.617206
0.0888663 0.230681 0.616768
0.0911941 0.229058 0.611996
0.0941501 0.229065 0.611565
0.0972057 0.229306 0.611744
0.0999254 0.228764 0.609817
0.102855 0.228721 0.609202
0.105843 0.228804 0.60891
0.108774 0.228766 0.608275
0.111575 0.228461 0.606915
0.114363 0.228148 0.605519
0.116969 0.227495 0.603206
0.119407 0.226555 0.60012
0.122158 0.226242 0.598681
0.125723 0.227415 0.601155
0.129017 0.228054 0.602198
0.132102 0.228303 0.60219
0.13443 0.227264 0.598773
0.136807 0.226349 0.595673
0.139912 0.226651 0.595762
0.142559 0.226215 0.593898
0.14537 0.22605 0.592733
0.148548 0.226452 0.593044
0.151826 0.226989 0.59369
0.154889 0.227189 0.593442
0.157361 0.22653 0.590943
0.159111 0.224876 0.585849
0.161921 0.224752 0.584737
0.165029 0.225039 0.584691
0.167974 0.225098 0.584044
0.170501 0.224604 0.581964
0.172899 0.223958 0.579493
0.175268 0.223298 0.576991
0 0 0
0 0 0
0.153243 0.186069 0.478836
0 0 0
0.152024 0.178985 0.459393
0.15274 0.177139 0.454073
0.153206 0.175062 0.448191
0.154263 0.173711 0.444195
0.155735 0.172858 0.441502
0.156338 0.17108 0.436472
0.158808 0.171365 0.436737
0.160354 0.170659 0.434505
0.162104 0.170187 0.432898
0.164483 0.170378 0.433011
0.16653 0.170224 0.432283
0.168867 0.170368 0.432344
0.17067 0.169976 0.431084
0.171387 0.168527 0.427184
0.172895 0.167881 0.425362
0.174995 0.16782 0.425064
0.178154 0.168763 0.427352
0.181011 0.1694 0.428909
0.183685 0.169853 0.430043
0.185465 0.169479 0.429129
0.187776 0.169592 0.429496
0.190252 0.16985 0.430277
0.193095 0.170427 0.431911
0.194905 0.170089 0.431273
0.196092 0.169221 0.429337
0.197798 0.168815 0.428617
0.199689 0.168574 0.428359
0.20225 0.168898 0.42958
0.207134 0.171134 0.435718
0.2138 0.17478 0.445503
0.215463 0.174302 0.444831
0 0 0
0.229995 0.182256 0.466409
0 0 0
0 0 0
0 0 0
0 0 0
0 0 0
0 0 0
0 0 0
0 0 0
0 0 0
0 0 0
0 0 0
0 0 0
0 0 0
0 0 0
0 0 0
0 0 0
0 0 0
0 0 0
0 0 0
0 0 0
0 0 0
0 0 0
-0.414068 0.315466 0.805263
-0.402356 0.309544 0.788646
-0.397704 0.308991 0.7858
-0.393369 0.308675 0.783628
-0.391148 0.31003 0.785755
-0.386811 0.309716 0.783718
-0.382995 0.309818 0.782804
-0.379376 0.310084 0.782372
-0.376846 0.311254 0.78429
-0.373217 0.311532 0.784029
-0.368441 0.310848 0.781427
-0.364777 0.311098 0.781249
-0.361569 0.311746 0.782148
-0.358294 0.31235 0.783015
-0.353045 0.311227 0.779634
-0.349436 0.311542 0.779937
-0.344083 0.31029 0.776401
-0.33925 0.309485 0.774067
-0.335735 0.309876 0.77481
-0.331361 0.309474 0.77365
-0.327859 0.309888 0.77461
-0.323239 0.309241 0.773001
-0.318026 0.308005 0.769998
-0.313496 0.307408 0.768667
-0.308306 0.306139 0.765732
-0.304304 0.306033 0.765778
-0.298106 0.303687 0.760287
-0.29628 0.305792 0.766006
-0.292118 0.305511 0.765814
-0.285989 0.303136 0.760431
-0.28224 0.303254 0.761356
-0.277676 0.302487 0.760112
-0.272599 0.301132 0.757436
-0.268319 0.30063 0.756949
-0.264311 0.300424 0.757245
-0.26047 0.300404 0.75805
-0.255557 0.299129 0.755717
-0.250537 0.297689 0.752988
-0.246303 0.297152 0.752567
-0.244021 0.29899 0.758185
-0.241135 0.300135 0.762075
-0.238912 0.302155 0.768213
-0.236365 0.303825 0.773483
-0.233123 0.304642 0.776602
-0.231052 0.307043 0.783774
-0.228504 0.308882 0.78953
-0.226662 0.311755 0.797945
-0.224191 0.313852 0.804387
-0.220898 0.314851 0.808023
-0.217435 0.315642 0.811122
-0.214174 0.316762 0.815063
-0.210453 0.31723 0.817324
-0.206024 0.316629 0.816814
0 0 0
-0.175785 0.281156 0.727112
-0.17161 0.280183 0.725474
-0.167638 0.279505 0.72458
-0.163216 0.278034 0.721607
-0.159347 0.277459 0.720933
-0.154653 0.27539 0.716355
-0.150088 0.273459 0.712106
-0.145858 0.272061 0.709216
-0.142026 0.271355 0.708106
-0.138741 0.271688 0.709685
-0.134529 0.270172 0.706415
-0.130929 0.269842 0.70622
-0.126889 0.268559 0.70351
-0.122872 0.267258 0.700725
-0.119187 0.266625 0.699667
-0.115266 0.265411 0.697064
-0.111305 0.264027 0.693989
-0.107763 0.263584 0.693363
-0.104398 0.26356 0.69382
-0.100807 0.262942 0.692695
-0.0967304 0.260974 0.687988
-0.0928075 0.259294 0.684017
-0.0891875 0.258368 0.682012
-0.0860918 0.258949 0.683965
-0.0827236 0.258723 0.683772
-0.0789699 0.257223 0.68019
-0.0759353 0.258037 0.682709
-0.0723882 0.257104 0.680589
-0.0688205 0.256006 0.678013
-0.0654358 0.255513 0.677021
-0.0617945 0.253915 0.673081
-0.0582675 0.252636 0.669968
-0.0551786 0.253218 0.671772
-0.0514484 0.250746 0.665459
-0.0482568 0.250746 0.665687
-0.0449119 0.249894 0.663636
-0.0415988 0.249101 0.661728
-0.0384097 0.248982 0.661593
-0.0351489 0.248334 0.660038
-0.0318815 0.247508 0.657992
-0.0286795 0.247064 0.656946
-0.0255474 0.247186 0.657394
-0.0222185 0.245171 0.652142
-0.0191421 0.245739 0.653746
-0.0159514 0.244776 0.65126
-0.0127494 0.243129 0.646942
-0.00961617 0.242158 0.644409
-0.00652025 0.241654 0.643103
-0.00344926 0.241998 0.644041
-0.000369159 0.242113 0.644355
0.00270415 0.24136 0.642347
0.00577194 0.241178 0.641842
0.00884958 0.241391 0.642376
0.0119166 0.24128 0.642035
0.0149516 0.240698 0.640427
0.0179898 0.240357 0.639445
0.0210802 0.240711 0.6403
0.0239907 0.239181 0.636131
0.0269453 0.238386 0.633903
0.0299457 0.238117 0.633058
0.0329423 0.237869 0.632259
0.0360427 0.23835 0.63338
0.0390602 0.23825 0.632945
0.0420827 0.238193 0.632609
0.0449849 0.237509 0.630593
0.047867 0.236811 0.62853
0.0508516 0.236673 0.627937
0.0538893 0.236784 0.627989
0.0568021 0.236363 0.626617
0.0596809 0.23585 0.624988
0.0626543 0.235743 0.624418
0.0656919 0.235875 0.624468
0.0685448 0.235362 0.622794
0.0713323 0.234677 0.620651
0.0741805 0.234238 0.619146
0.0770415 0.233873 0.617819
0.0802872 0.234658 0.619517
0.0832809 0.234678 0.619175
0.0863546 0.234913 0.619386
0.0890669 0.234183 0.617035
0.0917329 0.233382 0.614485
0.0945802 0.233078 0.613228
0.0973067 0.232504 0.611246
0.100508 0.233065 0.612231
0.103644 0.233447 0.612729
0.106431 0.233043 0.611145
0.109133 0.232479 0.609126
0.112045 0.232381 0.608315
0.11503 0.232436 0.607888
0.117848 0.232159 0.606576
0.120407 0.231398 0.603985
0.122541 0.229876 0.599395
0.126615 0.231979 0.604245
0.129528 0.231909 0.60341
0.132411 0.231788 0.602427
0.135461 0.231959 0.602189
0.138289 0.231751 0.600952
0.141658 0.232438 0.602023
0.143515 0.230668 0.596716
0.146013 0.229977 0.594198
0.149017 0.230096 0.593763
0.15204 0.230239 0.593379
0.15519 0.230564 0.593452
0.158501 0.231114 0.594093
0.159902 0.228908 0.587648
0.162286 0.228164 0.58496
0.165106 0.228047 0.583879
0.167826 0.227799 0.582463
0.170356 0.227306 0.580421
0.16966 0.222597 0.567633
0 0 0
0.149814 0.190206 0.48374
0.147324 0.184069 0.467517
0.148957 0.183196 0.464695
0.147689 0.178837 0.453059
0.148872 0.177533 0.449194
0.149732 0.175889 0.444491
0.15088 0.174627 0.440782
0.152556 0.174003 0.438708
0.15378 0.172889 0.435423
0.155201 0.172025 0.432798
0.157518 0.172164 0.432725
0.159633 0.172082 0.432123
0.16006 0.170207 0.427054
0.161994 0.169963 0.426113
0.164095 0.169898 0.425658
0.166379 0.170022 0.42571
0.167973 0.169447 0.42405
0.170061 0.169379 0.423696
0.172137 0.1693 0.423358
0.174304 0.169312 0.423289
0.176402 0.169257 0.423095
0.178933 0.169614 0.423973
0.18104 0.169566 0.423881
0.183498 0.169843 0.424647
0.185256 0.169473 0.423842
0.187553 0.169599 0.424322
0.19124 0.170966 0.427952
0.193222 0.170794 0.427777
0.194367 0.169895 0.425823
0.195235 0.168776 0.423359
0.198277 0.16954 0.425661
0.201053 0.170063 0.427404
0.202836 0.169744 0.427073
0.202854 0.167969 0.423116
0.20935 0.17154 0.432673
0.21136 0.171399 0.432917
0.22257 0.178646 0.451887
0 0 0
0 0 0
0 0 0
0 0 0
0 0 0
0 0 0
0 0 0
0 0 0
0 0 0
0 0 0
0 0 0
0 0 0
0 0 0
0 0 0
0 0 0
0 0 0
0 0 0
0 0 0
0 0 0
0 0 0
0 0 0
0 0 0
-0.400184 0.308768 0.779431
-0.402721 0.313769 0.790516
-0.398358 0.313438 0.788208
-0.39286 0.3122 0.783686
-0.388716 0.312023 0.781898
-0.386027 0.313023 0.783119
-0.380672 0.311859 0.778995
-0.383115 0.317126 0.79099
-0.379186 0.317173 0.790016
-0.373006 0.315319 0.784384
-0.373001 0.318701 0.791847
-0.367677 0.317562 0.788148
-0.364678 0.318429 0.789504
-0.359462 0.317357 0.786132
-0.354741 0.316703 0.783878
-0.350391 0.316369 0.782497
-0.347286 0.317165 0.783991
-0.341684 0.315672 0.779909
-0.33519 0.313311 0.773767
-0.331982 0.314001 0.775244
-0.328399 0.314349 0.775955
-0.324225 0.314133 0.775351
-0.319577 0.313446 0.773667
-0.317111 0.31491 0.777366
-0.311864 0.313613 0.774329
-0.304915 0.310551 0.767003
-0.300999 0.310538 0.767277
-0.297099 0.31054 0.767659
-0.292942 0.310272 0.767437
-0.288138 0.309301 0.765537
-0.284576 0.309656 0.766979
-0.279956 0.308852 0.765607
-0.275421 0.308122 0.764468
-0.270465 0.306892 0.762134
-0.265498 0.305614 0.759719
-0.261087 0.304949 0.758865
-0.256312 0.303832 0.756917
-0.251435 0.302558 0.754606
-0.246405 0.301059 0.751756
-0.242685 0.301138 0.752866
-0.240442 0.303081 0.758666
-0.238125 0.304993 0.764416
-0.235762 0.306908 0.770203
-0.232864 0.308177 0.774392
-0.229788 0.309249 0.778103
-0.229287 0.313885 0.790803
-0.227232 0.316518 0.798485
-0.224243 0.31792 0.803075
-0.220224 0.317886 0.80404
-0.218477 0.321192 0.813458
-0.215082 0.322153 0.816945
-0.211837 0.323381 0.821107
-0.2072 0.32249 0.819879
-0.202114 0.32085 0.816728
0 0 0
-0.172928 0.285929 0.729609
-0.168806 0.285035 0.728191
-0.164328 0.283492 0.72509
-0.160275 0.282627 0.723703
-0.156065 0.28144 0.721468
-0.151866 0.28022 0.719123
-0.148197 0.279942 0.719172
-0.143979 0.278589 0.716439
-0.139851 0.277347 0.713965
-0.135752 0.276098 0.711449
-0.132252 0.276036 0.711968
-0.128331 0.275069 0.71013
-0.123603 0.27227 0.703537
-0.119835 0.271485 0.70212
-0.116497 0.271659 0.703161
-0.112461 0.270166 0.699868
-0.108283 0.268226 0.695389
-0.104863 0.268103 0.695598
-0.10138 0.267804 0.695332
-0.097623 0.266734 0.693042
-0.0934485 0.264408 0.687465
-0.09008 0.264276 0.687568
-0.0867999 0.264402 0.688325
-0.0830888 0.263173 0.685537
-0.0797694 0.263135 0.685829
-0.0760208 0.261616 0.682242
-0.0725794 0.261064 0.681159
-0.0691629 0.260555 0.680166
-0.0656654 0.259674 0.678186
-0.0621338 0.258559 0.675576
-0.0587277 0.257872 0.674065
-0.0555214 0.258034 0.674756
-0.0520662 0.256987 0.672269
-0.0486166 0.255832 0.669479
-0.0455278 0.256545 0.671565
-0.0419598 0.254461 0.666312
-0.0387913 0.254657 0.66701
-0.0355515 0.254376 0.666446
-0.0321475 0.25275 0.662341
-0.0289014 0.252144 0.660893
-0.0257173 0.251998 0.660634
-0.0224776 0.251187 0.658619
-0.019303 0.25096 0.658117
-0.0161668 0.251238 0.658929
-0.0128188 0.247564 0.649357
-0.00971183 0.24768 0.649713
-0.00665037 0.249614 0.654822
-0.00350872 0.249303 0.654031
-0.000373773 0.24826 0.651302
0.00272516 0.246332 0.64624
0.00581511 0.246074 0.645545
0.00888832 0.245533 0.644092
0.0119334 0.244694 0.641843
0.0150238 0.244939 0.642423
0.0180959 0.244851 0.642119
0.0211156 0.244184 0.64028
0.0241039 0.243368 0.638038
0.0271223 0.243007 0.636973
0.0301133 0.242498 0.635508
0.0332635 0.243246 0.637323
0.0361495 0.242099 0.63416
0.0392706 0.242582 0.635251
0.0422659 0.242276 0.634259
0.045159 0.241463 0.631929
0.0479693 0.240338 0.628769
0.0510702 0.240716 0.629526
0.0541929 0.241149 0.630412
0.0571753 0.240945 0.629616
0.0598692 0.239606 0.625843
0.0632358 0.240959 0.629085
0.0658959 0.239619 0.625281
0.0687494 0.239069 0.623525
0.0715309 0.238325 0.621249
0.0743317 0.237703 0.619277
0.0774546 0.238119 0.619993
0.0804391 0.238095 0.619546
0.0835552 0.238447 0.620064
0.0864084 0.238051 0.618619
0.0893829 0.238005 0.618066
0.0922828 0.237769 0.617007
0.0952708 0.237768 0.61654
0.0982363 0.237713 0.615915
0.10106 0.237327 0.614419
0.104206 0.237699 0.614868
0.106959 0.237179 0.612992
0.109626 0.236502 0.610698
0.112632 0.236573 0.61032
0.115627 0.236617 0.609853
0.118492 0.2364 0.6087
0.121437 0.236349 0.607961
0.12443 0.236391 0.607442
0.12763 0.236816 0.607892
0.130408 0.236457 0.606313
0.13287 0.235553 0.603326
0.135751 0.235415 0.602289
0.138843 0.235641 0.60217
0.141872 0.235752 0.601743
0.144746 0.235607 0.60065
0.14678 0.234129 0.596154
0.149834 0.234302 0.595854
0.152781 0.234306 0.595115
0.156028 0.23476 0.595508
0.158013 0.233335 0.591132
0.161491 0.234126 0.592367
0.162856 0.231879 0.585916
0.165013 0.23082 0.582476
0.166184 0.228441 0.575716
0 0 0
0 0 0
0 0 0
0.145117 0.186588 0.467795
0.143399 0.181446 0.454327
0.144759 0.1803 0.450895
0.146449 0.179593 0.44858
0.147702 0.17838 0.44502
0.148256 0.176372 0.439503
0.149701 0.175467 0.436762
0.151358 0.174834 0.434723
0.152433 0.173557 0.431111
0.153562 0.172375 0.427766
0.156024 0.172701 0.428194
0.157067 0.171471 0.424793
0.158923 0.171148 0.423674
0.160913 0.170978 0.422965
0.163297 0.171224 0.423322
0.165355 0.171127 0.422867
0.167154 0.170767 0.421799
0.169463 0.170931 0.422066
0.171551 0.170872 0.42182
0.173029 0.170212 0.420135
0.175552 0.170585 0.421041
0.17752 0.170416 0.42065
0.179855 0.1706 0.421174
0.181933 0.170538 0.421134
0.18355 0.17005 0.420087
0.185896 0.170241 0.42076
0.188558 0.170714 0.422172
0.191135 0.1711 0.423416
0.191413 0.169442 0.419644
0.1927 0.168705 0.418187
0.194557 0.168477 0.418032
0.198159 0.169748 0.421643
0.199239 0.168856 0.419919
0.200176 0.167862 0.417977
0.204307 0.169539 0.422728
0.206063 0.169231 0.422572
0.210982 0.1715 0.428896
0.217466 0.174984 0.438315
0.224511 0.178843 0.448745
0.227599 0.179506 0.45121
0 0 0
0 0 0
0 0 0
0 0 0
0 0 0
0 0 0
0 0 0
0 0 0
0 0 0
0 0 0
0 0 0
0 0 0
0 0 0
0 0 0
0 0 0
0 0 0
0 0 0
0 0 0
0 0 0
-0.405477 0.316784 0.790965
-0.400687 0.316108 0.787713
-0.397612 0.316783 0.787888
-0.391657 0.315156 0.782399
-0.387269 0.314769 0.780059
-0.384452 0.315664 0.780959
-0.386293 0.320441 0.791502
-0.386369 0.323839 0.798674
-0.384712 0.32584 0.802453
-0.382455 0.32737 0.805129
-0.375688 0.325031 0.798366
-0.370239 0.323794 0.794394
-0.363377 0.32128 0.787375
-0.360112 0.321926 0.788181
-0.356606 0.32237 0.788565
-0.353357 0.323058 0.789624
-0.348528 0.3223 0.787228
-0.343304 0.321155 0.783969
-0.337034 0.318994 0.778312
-0.336024 0.321819 0.784899
-0.330777 0.320605 0.781714
-0.325441 0.319274 0.778326
-0.323315 0.321099 0.782707
-0.318576 0.320341 0.78087
-0.31346 0.31918 0.778127
-0.307732 0.317359 0.773847
-0.302088 0.315578 0.769736
-0.298478 0.315904 0.770831
-0.294235 0.315558 0.770357
-0.289463 0.314629 0.76852
-0.284792 0.313785 0.766951
-0.281792 0.314785 0.769947
-0.276844 0.313606 0.767666
-0.272022 0.312538 0.765708
-0.266671 0.310823 0.762205
-0.261804 0.309629 0.760018
-0.256935 0.308398 0.757773
-0.252181 0.307271 0.755814
-0.248449 0.307372 0.756906
-0.243506 0.305954 0.754283
-0.240207 0.306591 0.756747
-0.237493 0.308007 0.761162
-0.234982 0.309736 0.76638
-0.232936 0.312147 0.773312
-0.231002 0.314791 0.780848
-0.228059 0.316128 0.785165
-0.226963 0.320116 0.796088
-0.224035 0.321617 0.800847
-0.221962 0.324422 0.808867
-0.21914 0.326215 0.814377
-0.216163 0.327843 0.819479
-0.212848 0.329008 0.823428
-0.209271 0.329807 0.826458
-0.204434 0.328612 0.82448
0 0 0
-0.174683 0.29246 0.73555
-0.169739 0.290213 0.730759
-0.166093 0.290138 0.731417
-0.161403 0.288193 0.727341
-0.157177 0.287009 0.725159
-0.15291 0.285692 0.722618
-0.148809 0.284632 0.720704
-0.144967 0.284027 0.719919
-0.14093 0.282998 0.718039
-0.13646 0.281027 0.713741
-0.133154 0.281413 0.715408
-0.129514 0.281094 0.715262
-0.125513 0.279951 0.712999
-0.120885 0.277307 0.706885
-0.117123 0.27655 0.705557
-0.114141 0.277647 0.708937
-0.110713 0.277694 0.709621
-0.105447 0.272983 0.69812
-0.101826 0.272361 0.697044
-0.0981354 0.271505 0.695349
-0.0944308 0.270546 0.69337
-0.0905336 0.268945 0.689721
-0.0870168 0.268394 0.688745
-0.0842669 0.270259 0.693952
-0.0804973 0.268873 0.690794
-0.0770735 0.268572 0.690402
-0.0734268 0.267432 0.687836
-0.0694358 0.26487 0.68159
-0.0660937 0.264653 0.681356
-0.0626967 0.264181 0.680449
-0.0594597 0.264368 0.681224
-0.0558155 0.262661 0.677099
-0.0524848 0.262309 0.676448
-0.0492815 0.26259 0.677413
-0.0456975 0.260738 0.672858
-0.0424565 0.260709 0.672992
-0.0390607 0.259648 0.670442
-0.0358374 0.259645 0.67061
-0.0325096 0.25881 0.668612
-0.0292355 0.258265 0.667349
-0.025917 0.257146 0.664585
-0.0226106 0.25585 0.661348
-0.0195216 0.256992 0.664398
-0.0163258 0.256899 0.66424
-0.0130123 0.254459 0.657999
-0.00983004 0.253846 0.656466
-0.00667386 0.253644 0.655982
-0.00352365 0.25351 0.65566
-0.000376596 0.253279 0.65507
0.0027523 0.251912 0.651529
0.00585206 0.25075 0.648506
0.00896712 0.250824 0.648661
0.012088 0.250979 0.649014
0.0151633 0.25032 0.647247
0.0182522 0.25007 0.646523
0.0213185 0.249628 0.64529
0.024317 0.248606 0.642542
0.0273257 0.247906 0.640613
0.0304491 0.248283 0.641453
0.0335202 0.248204 0.6411
0.0364342 0.247073 0.638014
0.0394958 0.24704 0.637752
0.0424451 0.24636 0.635804
0.0453453 0.245507 0.633394
0.0483004 0.245038 0.631965
0.0512906 0.244793 0.631097
0.0544568 0.245369 0.632328
0.0575234 0.245458 0.632292
0.0602874 0.244312 0.629059
0.0629829 0.243012 0.625415
0.0663466 0.244291 0.628394
0.0690422 0.243105 0.625017
0.071745 0.242043 0.621946
0.0745937 0.241539 0.620294
0.0774604 0.24113 0.618872
0.0810628 0.242956 0.623169
0.0836603 0.241748 0.619664
0.0867725 0.242059 0.62004
0.0896763 0.241787 0.618906
0.0926603 0.241743 0.618337
0.0956387 0.241686 0.617723
0.098562 0.241499 0.616756
0.101615 0.241631 0.616591
0.10452 0.241412 0.615511
0.107227 0.240763 0.613324
0.110005 0.240302 0.6116
0.112989 0.240305 0.61104
0.116128 0.24063 0.611283
0.119134 0.240667 0.610779
0.12186 0.240153 0.608861
0.124768 0.240012 0.607877
