ply
format ascii 1.0
comment Generated by sampleExportPLY
element vertex 1748
property float x
property float y
property float z
element face 0
property list uchar int vertex_index
end_header
-0.121968 -0.191018 0.761884
-0.118429 -0.191076 0.762473
-0.113653 -0.18908 0.754844
-0.110221 -0.189262 0.75589
-0.105866 -0.187819 0.750431
-0.101956 -0.187094 0.747824
-0.0985238 -0.187226 0.748623
-0.0951402 -0.187462 0.74983
-0.0909783 -0.186125 0.744726
-0.0869246 -0.184911 0.7401
-0.0834125 -0.184796 0.73986
-0.0793573 -0.183417 0.734541
-0.0756241 -0.18269 0.731825
-0.0721222 -0.18248 0.731164
-0.068631 -0.182277 0.730522
-0.0650806 -0.181888 0.729122
-0.061507 -0.181388 0.727264
-0.058027 -0.181121 0.726333
-0.0545031 -0.180675 0.724674
-0.0508316 -0.179649 0.720678
-0.0473344 -0.179137 0.718735
-0.0438759 -0.178705 0.717102
-0.0404804 -0.178478 0.716288
-0.0370206 -0.177903 0.714063
-0.0336145 -0.177497 0.71251
-0.0301331 -0.176561 0.708822
-0.0267905 -0.176308 0.707866
-0.0234517 -0.176012 0.706732
-0.0201016 -0.175521 0.704806
-0.0168118 -0.175468 0.704632
-0.0135272 -0.175457 0.704618
-0.0103852 -0.17788 0.714375
-0.00710653 -0.179143 0.719467
-0.00375352 -0.179118 0.719374
-0.000402434 -0.17952 0.720995
0.00295196 -0.179209 0.719743
0.00628316 -0.17857 0.717166
0.00959046 -0.177931 0.714584
0.0128738 -0.177291 0.711991
0.016141 -0.176737 0.709737
0.0193352 -0.175708 0.705565
0.022617 -0.175659 0.705323
0.0258287 -0.175147 0.703216
0.0290192 -0.174622 0.70105
0.0323984 -0.175224 0.703401
0.0356169 -0.174926 0.702133
0.0383134 -0.172331 0.691635
0.041648 -0.172786 0.693373
0.0444938 -0.171293 0.687287
0.0475902 -0.170901 0.685611
0.0507952 -0.170924 0.685591
0.0542562 -0.171754 0.688802
0.0574028 -0.171552 0.687863
0.0604386 -0.171058 0.685742
0.0633111 -0.170175 0.682054
0.0668342 -0.171041 0.685368
0.0699859 -0.170921 0.68472
0.0728329 -0.1701 0.681254
0.0742437 -0.166134 0.665186
0.0777609 -0.16701 0.668502
0.0809361 -0.167113 0.668707
0.0842387 -0.167461 0.669883
0.0876894 -0.168069 0.672082
0.0912703 -0.168875 0.675062
0.0931094 -0.166512 0.665363
0.0969522 -0.16777 0.67012
0.100822 -0.168993 0.674724
0.104302 -0.16951 0.676487
0.107086 -0.168897 0.673728
0.11105 -0.170128 0.67831
0.115448 -0.171937 0.685173
0.118721 -0.172016 0.685125
0.121048 -0.170758 0.679736
0.124343 -0.170895 0.679883
0.127747 -0.171171 0.680567
0.130761 -0.170923 0.679149
0.136119 -0.173679 0.68964
0 0 0
0.146994 -0.179005 0.709787
0.152444 -0.181506 0.719161
0.158077 -0.18411 0.72891
0.161894 -0.184534 0.729992
0.165554 -0.184765 0.730287
0.169013 -0.184767 0.729651
0.172146 -0.184418 0.72761
0.176062 -0.184907 0.728845
0.178317 -0.183666 0.723239
0.179658 -0.181547 0.714166
0.181364 -0.17987 0.706818
0.18332 -0.178497 0.700654
0.18342 -0.175398 0.687706
0.185887 -0.174632 0.683899
0.188704 -0.174216 0.681439
0.187871 -0.170501 0.66607
0.187061 -0.166931 0.651278
0.187911 -0.164934 0.642628
0.189317 -0.163483 0.636096
0.192518 -0.163603 0.635658
0.194202 -0.162452 0.630261
0.193903 -0.159701 0.618659
0.194728 -0.157946 0.610914
0.197544 -0.157834 0.609514
0.200775 -0.158053 0.609365
0.202699 -0.157251 0.605267
0.203195 -0.15538 0.597045
0.204811 -0.154406 0.592273
0.20913 -0.155468 0.595293
0.214071 -0.156958 0.599915
0.213513 -0.15443 0.589173
0.21609 -0.154207 0.58723
0.219824 -0.154804 0.588397
0.218996 -0.152215 0.57746
0.2238 -0.153557 0.581439
0.225439 -0.15272 0.577165
0.227558 -0.152226 0.574195
0.229414 -0.15157 0.570627
0.231973 -0.151389 0.568863
0.234902 -0.151451 0.568028
0.237934 -0.151577 0.567448
0.240287 -0.151272 0.56528
0.240606 -0.149709 0.55845
0.243438 -0.149729 0.557565
0.246541 -0.149911 0.557325
0.251004 -0.150908 0.560148
0.252805 -0.1503 0.55706
0.253268 -0.148918 0.551169
0.259151 -0.150719 0.557112
0.259071 -0.14905 0.550293
0.260879 -0.148491 0.54765
0.263746 -0.148541 0.547321
0.269181 -0.150021 0.552334
0.264088 -0.145663 0.535937
0.269706 -0.147242 0.541467
0.273613 -0.147865 0.543558
0.283452 -0.151648 0.557345
0.275436 -0.145898 0.536181
0.27227 -0.142806 0.524865
0.277209 -0.143983 0.529321
0.273743 -0.140814 0.517876
0 0 0
0.281157 -0.141896 0.522505
0.280944 -0.140462 0.51766
0.281242 -0.139308 0.513911
0.279084 -0.136969 0.50585
0.280827 -0.13657 0.505011
0.280865 -0.135357 0.501217
0.285297 -0.136264 0.505338
0.286434 -0.135595 0.503675
0.287693 -0.134995 0.502322
0.290191 -0.134982 0.503205
0.292771 -0.135006 0.504283
0.29069 -0.1329 0.497438
0.291261 -0.132031 0.495252
0 0 0
0 0 0
-0.477735 -0.242928 0.910024
-0.467779 -0.240194 0.899601
-0.457648 -0.237316 0.888778
0 0 0
-0.412416 -0.218176 0.817396
-0.403106 -0.215424 0.80742
-0.397608 -0.214674 0.805061
-0.392732 -0.214247 0.804029
-0.387821 -0.213792 0.803001
-0.379757 -0.211571 0.795439
-0.374972 -0.211149 0.79473
-0.370239 -0.210747 0.79419
-0.365239 -0.210182 0.793123
-0.36029 -0.209635 0.792198
-0.356129 -0.209539 0.793048
-0.352573 -0.209801 0.795321
-0.347095 -0.208912 0.793288
-0.343188 -0.208959 0.794855
-0.339296 -0.209016 0.796506
-0.335045 -0.208851 0.797346
-0.330147 -0.208274 0.796639
-0.325912 -0.208106 0.797514
-0.320762 -0.207342 0.796114
-0.316084 -0.206868 0.795831
-0.309458 -0.205092 0.790525
-0.304435 -0.204346 0.78917
-0.296786 -0.201794 0.780816
-0.291604 -0.200876 0.778746
-0.286497 -0.199985 0.776755
-0.278154 -0.196781 0.765735
-0.272261 -0.195246 0.761161
-0.269446 -0.195907 0.765117
-0.266073 -0.196174 0.76752
-0.261421 -0.195493 0.766186
-0.256012 -0.194218 0.762485
-0.247806 -0.190753 0.750128
-0.243996 -0.190618 0.750815
-0.239293 -0.189771 0.748666
-0.237998 -0.191643 0.757215
-0.235536 -0.192618 0.762209
-0.23216 -0.192865 0.764301
-0.226589 -0.191267 0.759044
-0.223345 -0.191613 0.761463
-0.221661 -0.193332 0.769318
-0.223566 -0.198292 0.790073
-0.220645 -0.199068 0.794155
-0.217487 -0.199654 0.797456
-0.214877 -0.200774 0.802865
-0.211219 -0.200936 0.80442
-0.207057 -0.200616 0.804015
-0.20279 -0.20018 0.803113
-0.197997 -0.199199 0.799986
-0.193521 -0.198505 0.797978
-0.189522 -0.198281 0.79783
-0.185865 -0.198414 0.799088
-0.182042 -0.198372 0.799614
-0.177465 -0.197488 0.796717
-0.173229 -0.196954 0.795203
-0.168744 -0.196107 0.792399
-0.164062 -0.194988 0.78846
-0.160052 -0.194633 0.787588
-0.155072 -0.193055 0.781734
-0.151613 -0.193338 0.783394
-0.147371 -0.192613 0.780946
-0.143363 -0.192164 0.779592
-0.138769 -0.190885 0.774851
-0.133933 -0.189196 0.768417
-0.129869 -0.188535 0.766131
-0.125774 -0.187789 0.763483
-0.12181 -0.187201 0.761457
-0.118407 -0.187465 0.762877
-0.113651 -0.185538 0.755364
-0.109682 -0.184812 0.752718
-0.106035 -0.184598 0.752145
-0.102176 -0.183989 0.749942
-0.0984929 -0.183664 0.748883
-0.0949956 -0.183674 0.749177
-0.0914906 -0.18367 0.749398
-0.0868504 -0.181296 0.739934
-0.0830694 -0.180592 0.737274
-0.0801273 -0.181731 0.742122
-0.0766376 -0.181674 0.742078
-0.07288 -0.180947 0.739283
-0.0687175 -0.179092 0.73187
-0.0653226 -0.179148 0.732254
-0.0617804 -0.178784 0.730911
-0.0580939 -0.177936 0.727578
-0.0544928 -0.17726 0.724939
-0.0511439 -0.17737 0.725503
-0.0473446 -0.175822 0.71928
-0.0439687 -0.175731 0.719003
-0.0405997 -0.175655 0.71878
-0.0372603 -0.175704 0.719064
-0.0338206 -0.175243 0.717252
-0.0304064 -0.174828 0.715621
-0.0270069 -0.174406 0.71395
-0.0236793 -0.174395 0.713958
-0.0203113 -0.174033 0.712521
-0.0170118 -0.174232 0.713374
-0.0136678 -0.173962 0.712299
-0.0102975 -0.173076 0.708694
-0.00700506 -0.173281 0.70955
-0.00370262 -0.173382 0.709976
-0.000395248 -0.173015 0.708477
0.00289911 -0.172707 0.70721
0.00621396 -0.173298 0.709623
0.00948772 -0.172731 0.707284
0.0126835 -0.171402 0.701821
0.0159451 -0.171325 0.701478
0.0192237 -0.171426 0.701854
0.0224478 -0.171081 0.700403
0.0256493 -0.170675 0.69869
0.028932 -0.170839 0.699305
0.0322421 -0.171115 0.700373
0.0352068 -0.169676 0.694413
0.0381672 -0.168461 0.689362
0.0411224 -0.167412 0.684988
0.0439732 -0.166121 0.679614
0.0472437 -0.166482 0.680992
0.0504145 -0.166468 0.680829
0.0540389 -0.167865 0.686427
0.0569385 -0.16698 0.682685
0.0599587 -0.166524 0.680687
0.0627582 -0.165532 0.676491
0.0656964 -0.164983 0.674098
0.0691452 -0.165707 0.6769
0.0707203 -0.162075 0.661896
0.0738293 -0.162115 0.661882
0.0771279 -0.162551 0.663476
0.0804011 -0.162902 0.66471
0.0835003 -0.162887 0.664441
0.0868583 -0.16336 0.666151
0.0896945 -0.162853 0.663851
0.0928203 -0.162889 0.663749
0.096439 -0.163759 0.667035
0.100294 -0.164962 0.671662
0.103383 -0.164872 0.67101
0.106916 -0.165473 0.67315
0.110461 -0.166058 0.675211
0.114211 -0.166912 0.678346
0.11826 -0.168142 0.682992
0.121395 -0.168043 0.682221
0.124391 -0.167762 0.68069
0.13026 -0.171272 0.694519
0.133652 -0.171433 0.694744
0.137162 -0.171734 0.695512
0 0 0
0.147444 -0.176193 0.712586
0.151535 -0.177047 0.715513
0.155537 -0.177763 0.717856
0.158805 -0.177626 0.716733
0.162782 -0.178272 0.71874
0.166437 -0.178545 0.71922
0.169555 -0.178244 0.717363
0.173266 -0.178565 0.717986
0.175325 -0.177205 0.711825
0.177857 -0.176364 0.707738
0.177927 -0.173159 0.694153
0 0 0
0.181898 -0.170687 0.68274
0.184454 -0.170043 0.679377
0.18518 -0.167763 0.669463
0.184907 -0.16467 0.65631
0.184816 -0.161841 0.644208
0.186017 -0.160217 0.6369
0.187787 -0.159128 0.631708
0 0 0
0 0 0
0.190545 -0.153999 0.608698
0 0 0
0 0 0
0 0 0
0 0 0
0.198229 -0.148746 0.583213
0.201442 -0.149024 0.583293
0 0 0
0 0 0
0 0 0
0 0 0
0 0 0
0.214581 -0.146355 0.566561
0 0 0
0.225101 -0.149638 0.577045
0.225766 -0.148201 0.5704
0.225131 -0.145957 0.560679
0.229042 -0.146679 0.562368
0.233997 -0.148044 0.56652
0.233413 -0.145914 0.557317
0.236964 -0.146389 0.558094
0.238556 -0.145656 0.554297
0.242238 -0.146202 0.555394
0.246474 -0.147066 0.557725
0.247548 -0.146045 0.552951
0.249794 -0.14573 0.550903
0.255142 -0.147213 0.555694
0 0 0
0.260636 -0.147144 0.553983
0.254958 -0.142405 0.535533
0.254691 -0.140757 0.528798
0.255118 -0.139522 0.5237
0.257967 -0.139624 0.523695
0.257239 -0.137808 0.516573
0.258767 -0.137225 0.514156
0.263337 -0.13825 0.517842
0.264496 -0.137482 0.514892
0.26641 -0.137117 0.513533
0.267101 -0.136137 0.509947
0.269484 -0.136029 0.509707
0.27142 -0.1357 0.508714
0.274876 -0.13613 0.510645
0.277017 -0.135907 0.510203
0.278258 -0.13525 0.508203
0.280206 -0.134946 0.507598
0.280555 -0.133885 0.504209
0.283926 -0.134271 0.506337
0.283593 -0.132915 0.501952
0.28407 -0.131959 0.49913
0.286587 -0.131959 0.499978
0.288597 -0.131728 0.500006
0.288611 -0.130598 0.496667
0.289684 -0.129962 0.495248
0.29045 -0.1292 0.49339
0 0 0
0 0 0
-0.465987 -0.232435 0.887536
-0.462269 -0.232838 0.888966
-0.451446 -0.229635 0.876765
0 0 0
-0.413369 -0.21451 0.819448
-0.404779 -0.212193 0.810998
-0.398026 -0.210801 0.806198
-0.392897 -0.21025 0.804722
-0.386103 -0.208786 0.799861
-0.380741 -0.208074 0.797976
-0.375366 -0.207339 0.796099
-0.37044 -0.20684 0.795212
-0.365602 -0.206379 0.794556
-0.36071 -0.205877 0.793816
-0.356366 -0.205679 0.794317
-0.351905 -0.20541 0.794601
-0.347523 -0.20518 0.795092
-0.343277 -0.205027 0.795924
-0.338983 -0.204841 0.796668
-0.334719 -0.204669 0.797497
-0.32953 -0.20392 0.796097
-0.323706 -0.202755 0.793081
-0.318603 -0.202019 0.791738
-0.312908 -0.200885 0.788828
-0.306447 -0.199223 0.783831
-0.298441 -0.196502 0.774627
-0.293352 -0.195655 0.772778
-0.290108 -0.196034 0.775753
-0.28102 -0.192421 0.762895
-0.27462 -0.190576 0.756989
-0.269199 -0.189369 0.753573
-0.263991 -0.18828 0.750591
-0.2592 -0.187462 0.748653
-0.254865 -0.186956 0.747924
-0.249441 -0.185624 0.743853
-0.245281 -0.185208 0.743411
-0.242013 -0.185463 0.745636
-0.239285 -0.186146 0.749556
-0.237299 -0.187435 0.755901
-0.235721 -0.189093 0.763718
-0.232511 -0.189473 0.766359
-0.230796 -0.191103 0.774032
-0.228157 -0.192009 0.778758
-0.225929 -0.193297 0.785013
-0.223465 -0.194422 0.790588
-0.220474 -0.19512 0.794406
-0.217654 -0.195997 0.798924
-0.21448 -0.19658 0.802224
-0.210485 -0.196419 0.802456
-0.204839 -0.194682 0.796213
-0.200554 -0.194197 0.795053
-0.196806 -0.194225 0.795956
-0.192238 -0.193428 0.793451
-0.188933 -0.193895 0.796104
-0.185561 -0.194312 0.798524
-0.181405 -0.193907 0.797542
-0.174616 -0.190611 0.78463
-0.171054 -0.190773 0.785913
-0.166767 -0.190113 0.783789
-0.161677 -0.188489 0.777657
-0.157913 -0.18837 0.777707
-0.15391 -0.187954 0.776507
-0.150608 -0.188394 0.778826
-0.145315 -0.186304 0.770655
-0.140115 -0.184229 0.762519
-0.135065 -0.182248 0.754743
-0.131399 -0.182077 0.754439
-0.126336 -0.179908 0.745831
-0.122211 -0.17899 0.742387
-0.118063 -0.177982 0.738548
-0.114539 -0.177884 0.738468
-0.110608 -0.177126 0.735633
-0.106565 -0.176135 0.73181
-0.102836 -0.175615 0.729929
-0.0996813 -0.176074 0.7321
-0.0981054 -0.179453 0.746406
-0.0942308 -0.178721 0.743605
-0.0900485 -0.177328 0.738034
-0.0863232 -0.176759 0.735881
-0.0812452 -0.173258 0.721506
-0.079589 -0.177067 0.737562
-0.075927 -0.176557 0.735615
-0.0724251 -0.176388 0.735081
-0.0685825 -0.175331 0.730836
-0.0650778 -0.175073 0.729907
-0.0617021 -0.175153 0.730378
-0.0578317 -0.173755 0.724678
-0.0541003 -0.172627 0.720094
-0.0504452 -0.17161 0.715962
-0.0471893 -0.171903 0.717285
-0.0439774 -0.172414 0.71951
-0.0404875 -0.171829 0.717153
-0.0371672 -0.171923 0.717623
-0.0334308 -0.16992 0.709335
-0.0299776 -0.169076 0.705872
-0.0266677 -0.168931 0.705324
-0.0234632 -0.169507 0.707779
-0.0200749 -0.168728 0.704567
-0.0167747 -0.168528 0.703766
-0.0134875 -0.168394 0.703236
-0.0102659 -0.169254 0.706851
-0.00695349 -0.168725 0.704658
-0.00367401 -0.168761 0.70482
-0.000391136 -0.16795 0.701435
0.00288626 -0.168662 0.704408
0.00615492 -0.168378 0.703212
0.0093982 -0.167838 0.700941
0.0126484 -0.167668 0.700211
0.0159166 -0.167757 0.700557
0.0190654 -0.166772 0.696408
0.0222778 -0.166548 0.695435
0.0254836 -0.166339 0.694512
0.028665 -0.166035 0.693189
0.0316613 -0.164828 0.688093
0.034724 -0.164158 0.685229
0.0378606 -0.16392 0.684164
0.0409127 -0.163382 0.68184
0.0437821 -0.162245 0.677005
0.0463893 -0.160354 0.669021
0.0494993 -0.160329 0.668819
0.0527727 -0.160806 0.670698
0.0562649 -0.161858 0.674969
0.0586459 -0.159772 0.666145
0.0621044 -0.160683 0.669812
0.0644754 -0.158828 0.661938
0.068367 -0.160718 0.669661
0.070313 -0.158068 0.658462
0.0732538 -0.157784 0.657107
0.0757256 -0.156552 0.6518
0.0794327 -0.15787 0.657101
0.0822303 -0.157351 0.654738
0.0854752 -0.157693 0.655954
0.0893683 -0.159167 0.661858
0.0923091 -0.158902 0.660521
0.0952936 -0.158728 0.659547
0 0 0
0.0986554 -0.154332 0.640761
0 0 0
0.108789 -0.160426 0.665466
0.112407 -0.161141 0.66811
0 0 0
0 0 0
0 0 0
0 0 0
0.131418 -0.165353 0.683676
0.134055 -0.164643 0.680307
0 0 0
0 0 0
0 0 0
0 0 0
0 0 0
0 0 0
0 0 0
0 0 0
0 0 0
0 0 0
0 0 0
0 0 0
0 0 0
0 0 0
0 0 0
0 0 0
0 0 0
0 0 0
0 0 0
0 0 0
0.167904 -0.137346 0.555711
0.166866 -0.134361 0.542852
0.172236 -0.136547 0.550872
0.173743 -0.13565 0.546426
0.175986 -0.135348 0.544357
0.177258 -0.134317 0.539349
0.181253 -0.135351 0.542609
0.183303 -0.134922 0.539982
0.185695 -0.134755 0.538383
0.188135 -0.134626 0.536925
0.190527 -0.134468 0.535333
0.1932 -0.134508 0.534517
0.1973 -0.135528 0.537573
0.198466 -0.134532 0.532619
0.201282 -0.134666 0.532134
0.203987 -0.134724 0.531339
0.206134 -0.134416 0.529097
0.208686 -0.134377 0.527913
0.211735 -0.134654 0.527973
0.214971 -0.135043 0.528467
0.217874 -0.135215 0.528118
0.220158 -0.135003 0.526283
0.222121 -0.134603 0.523731
0.224627 -0.134536 0.522502
0.227838 -0.134888 0.522925
0.230995 -0.135201 0.523223
0.233525 -0.135144 0.522122
0.235921 -0.135012 0.52077
0.238408 -0.134934 0.519676
0.241677 -0.135295 0.520324
0.244096 -0.135178 0.519186
0.245384 -0.134444 0.515742
0.247853 -0.134365 0.514879
0.250523 -0.134396 0.514504
0.253407 -0.13454 0.514633
0.256102 -0.134582 0.514443
0.258864 -0.134658 0.51446
0.261135 -0.134479 0.513583
0.264429 -0.134826 0.51479
0.265424 -0.134004 0.511619
0.266608 -0.133294 0.508953
0.268883 -0.133138 0.508478
0.271151 -0.13298 0.508081
0.274199 -0.133205 0.509221
0.276991 -0.133302 0.509952
0.279218 -0.133128 0.509722
0.281243 -0.132862 0.50921
0.28391 -0.132902 0.509941
0.284915 -0.132169 0.507774
0.283374 -0.13028 0.501217
0.284665 -0.129714 0.499804
0.287122 -0.129684 0.500516
0.28964 -0.129683 0.501395
0.289229 -0.128381 0.497295
0.290859 -0.128 0.496804
0.293518 -0.128075 0.498129
0.293159 -0.126842 0.494411
0 0 0
-0.459492 -0.224739 0.875095
-0.458325 -0.226364 0.881378
-0.45381 -0.22635 0.881422
0 0 0
-0.414708 -0.211021 0.822297
-0.404658 -0.208005 0.811012
-0.398767 -0.207088 0.80802
-0.393169 -0.206305 0.805663
-0.386834 -0.205115 0.801818
-0.381618 -0.204499 0.800316
-0.376333 -0.203832 0.798709
-0.371363 -0.203324 0.797805
-0.366652 -0.202948 0.797501
-0.361758 -0.202461 0.796832
-0.356769 -0.201909 0.795971
-0.351577 -0.201229 0.794654
-0.346657 -0.20069 0.793941
-0.340779 -0.199578 0.790993
-0.337706 -0.200102 0.794561
-0.330382 -0.198089 0.788075
-0.32514 -0.197292 0.786424
-0.319138 -0.196008 0.782835
-0.313081 -0.194658 0.778972
-0.306604 -0.193011 0.773899
-0.298597 -0.190346 0.76471
-0.294273 -0.189991 0.764775
-0.287465 -0.188002 0.758233
-0.282197 -0.186981 0.75556
-0.276828 -0.185865 0.752471
-0.271586 -0.184806 0.749574
-0.26745 -0.184481 0.749625
-0.263044 -0.183957 0.748839
-0.258643 -0.183423 0.747977
-0.254405 -0.18299 0.747497
-0.249767 -0.182253 0.745739
-0.245417 -0.181708 0.744728
-0.241836 -0.181724 0.745985
-0.238974 -0.18229 0.74947
-0.236898 -0.183481 0.755511
-0.23506 -0.184897 0.762459
-0.232564 -0.185831 0.767405
-0.230635 -0.187257 0.774363
-0.227954 -0.188109 0.778927
-0.22586 -0.189481 0.785627
-0.22273 -0.190016 0.788834
-0.219815 -0.190755 0.792865
-0.216035 -0.190757 0.793804
-0.212392 -0.190882 0.795222
-0.208384 -0.190678 0.795243
-0.2025 -0.188718 0.787897
-0.199094 -0.189036 0.790029
-0.196135 -0.189799 0.793994
-0.191518 -0.188957 0.791215
-0.18544 -0.186611 0.7821
-0.181074 -0.185927 0.779914
-0.177077 -0.185602 0.7792
-0.174381 -0.186655 0.784252
-0.169074 -0.184898 0.777472
-0.164002 -0.183327 0.771435
-0.160309 -0.18326 0.7717
-0.156512 -0.183069 0.771423
-0.151862 -0.181847 0.766773
-0.147946 -0.181466 0.765644
-0.143361 -0.180225 0.760864
-0.139052 -0.179276 0.75729
-0.135136 -0.178798 0.75568
-0.129221 -0.175578 0.742456
-0.125385 -0.175083 0.740735
-0.121244 -0.17412 0.73701
-0.117473 -0.173649 0.735347
-0.113707 -0.173157 0.73358
-0.110114 -0.172907 0.732818
-0.10628 -0.172249 0.730315
-0.101997 -0.170796 0.72442
-0.0987944 -0.171115 0.726027
-0.0963091 -0.172742 0.733177
-0.09361 -0.174092 0.739138
-0.0898926 -0.173579 0.73718
-0.0856327 -0.171936 0.730407
-0.0818641 -0.171184 0.727406
0 0 0
-0.0751854 -0.171433 0.728822
-0.071809 -0.171487 0.729214
-0.0683378 -0.171309 0.728608
-0.064555 -0.17029 0.724415
-0.0607023 -0.168964 0.718906
-0.0571756 -0.168444 0.716814
-0.0534315 -0.167179 0.711543
-0.0500141 -0.166836 0.710188
-0.0470011 -0.167889 0.714769
-0.0434132 -0.166893 0.710616
-0.0399116 -0.166091 0.707285
-0.0366021 -0.166017 0.707041
-0.0333153 -0.166041 0.70721
-0.0299273 -0.165511 0.705011
-0.0265794 -0.165099 0.703309
-0.0233783 -0.165611 0.705538
-0.0200176 -0.164975 0.702869
-0.0167512 -0.165021 0.703097
-0.0134767 -0.164988 0.702986
-0.0101627 -0.164295 0.700056
-0.00690823 -0.164368 0.700381
-0.0036327 -0.16362 0.697203
-0.000387957 -0.163346 0.69604
0.00285196 -0.163418 0.696344
0.00607892 -0.163066 0.694835
0.00930851 -0.163004 0.694559
0.0125556 -0.163202 0.695381
0.0156727 -0.161975 0.690129
0.0188593 -0.161762 0.689188
0.0221667 -0.162496 0.692277
0.0251711 -0.161104 0.686305
0.0283714 -0.161139 0.686402
0.0314981 -0.160791 0.684864
0.0346828 -0.160775 0.684734
0.0377412 -0.160226 0.682326
0.0406761 -0.159279 0.678217
0.0431555 -0.156813 0.667635
0.046257 -0.156787 0.667436
0.0493209 -0.156645 0.666735
0.0522946 -0.156251 0.664951
0.0550569 -0.155304 0.660811
0.0584708 -0.156198 0.664497
0.0612283 -0.155337 0.660705
0.0642044 -0.155086 0.659504
0.0672559 -0.155032 0.659131
0.0691783 -0.152494 0.648189
0 0 0
0 0 0
0 0 0
0 0 0
0 0 0
0 0 0
0 0 0
0 0 0
0 0 0
0.0967714 -0.148441 0.628934
0 0 0
0 0 0
0 0 0
0 0 0
0 0 0
0 0 0
0 0 0
0 0 0
0 0 0
0 0 0
0 0 0
0.120771 -0.135722 0.571215
0.12199 -0.134104 0.56399
0.12323 -0.132578 0.557146
0.125517 -0.132217 0.555189
0.127486 -0.131544 0.551905
0.130472 -0.131927 0.553032
0.132908 -0.131748 0.551788
0.134735 -0.130985 0.548079
0.136392 -0.130089 0.543802
0.1398 -0.130864 0.546493
0.142695 -0.13114 0.547074
0.145423 -0.131255 0.546962
0.147921 -0.131163 0.545963
0.150454 -0.131104 0.545084
0.152551 -0.130673 0.54264
0.155239 -0.130755 0.542304
0.157829 -0.130754 0.5416
0.160523 -0.130836 0.541221
0.163208 -0.130909 0.540781
0.166061 -0.131112 0.540854
0.168812 -0.13123 0.540551
0.170938 -0.130866 0.538242
0.173486 -0.130831 0.537267
0.176469 -0.13112 0.5376
0.179207 -0.131221 0.537141
0.181881 -0.131273 0.536456
0.184433 -0.131237 0.535394
0.187321 -0.131438 0.535276
0.190558 -0.131875 0.536096
0.192598 -0.131482 0.533527
0.19502 -0.131357 0.532036
0.198471 -0.13192 0.533311
0.20079 -0.131726 0.531509
0.203102 -0.131532 0.529704
0.205828 -0.131607 0.528977
0.208471 -0.131628 0.528028
0.211068 -0.13162 0.526958
0.213526 -0.131527 0.525553
0.217212 -0.132183 0.527141
0.219386 -0.131915 0.525049
0.222052 -0.131944 0.524161
0.224762 -0.131999 0.52339
0.226863 -0.1317 0.52124
0.230365 -0.132211 0.522324
0.233479 -0.132491 0.52252
0.235718 -0.132273 0.520793
0.238592 -0.132413 0.520517
0.241264 -0.132438 0.519842
0.243713 -0.132342 0.518741
0.245803 -0.132055 0.516954
0.248362 -0.132024 0.516232
0.250912 -0.131988 0.515558
0.253437 -0.131941 0.514908
0.255919 -0.131871 0.514248
0.258217 -0.13171 0.513305
0.261002 -0.131798 0.513411
0.263674 -0.131827 0.513368
0.266991 -0.132175 0.514647
0.268544 -0.131652 0.512614
0.269083 -0.130646 0.508786
0.272784 -0.13118 0.511032
0.275818 -0.131387 0.512082
0.278068 -0.131219 0.511753
0.279835 -0.130829 0.510633
0.281516 -0.130406 0.509458
0.284774 -0.130714 0.511213
0.286234 -0.1302 0.509819
0.285244 -0.12859 0.504195
0.286681 -0.128093 0.502989
0.289634 -0.128276 0.504514
0.29113 -0.127816 0.503573
0.292427 -0.127277 0.502371
0.292151 -0.126069 0.498572
0.291566 -0.124749 0.494364
0.295204 -0.125244 0.497389
0 0 0
-0.462329 -0.221643 0.88046
-0.448957 -0.217341 0.863393
0 0 0
0 0 0
-0.415029 -0.206997 0.823157
-0.409042 -0.20609 0.820087
-0.399157 -0.20318 0.809156
-0.394446 -0.202871 0.808687
-0.388795 -0.202067 0.80635
-0.38244 -0.200876 0.802563
-0.376849 -0.200065 0.800381
-0.371276 -0.199246 0.798247
-0.36633 -0.198749 0.797477
-0.362205 -0.198692 0.798539
-0.357342 -0.198224 0.798013
-0.350584 -0.196682 0.793207
-0.345915 -0.19629 0.793073
-0.340076 -0.195217 0.79022
-0.333619 -0.193761 0.785826
-0.325512 -0.1913 0.777354
-0.318927 -0.189685 0.772304
-0.313137 -0.188509 0.769035
-0.305879 -0.18641 0.761978
-0.301075 -0.185772 0.760875
-0.296402 -0.185201 0.760031
-0.29174 -0.184621 0.759135
-0.286449 -0.183623 0.756497
-0.281739 -0.182976 0.755274
-0.276664 -0.182073 0.752963
-0.271522 -0.181099 0.750328
-0.267377 -0.180773 0.750344
-0.263367 -0.180531 0.75068
-0.258477 -0.179671 0.748409
-0.254136 -0.179173 0.74761
-0.249868 -0.178712 0.746932
-0.245666 -0.178286 0.746365
-0.241572 -0.177927 0.746041
-0.237922 -0.177889 0.74703
-0.236699 -0.179692 0.755735
-0.234459 -0.180767 0.761361
-0.232724 -0.182273 0.768784
-0.229626 -0.182741 0.771814
-0.22693 -0.183551 0.776259
-0.225021 -0.185034 0.783534
-0.22197 -0.185613 0.786957
-0.218024 -0.185449 0.787206
-0.214661 -0.185786 0.789546
-0.207914 -0.183153 0.779222
-0.204036 -0.182997 0.779398
-0.200487 -0.183136 0.7808
-0.195451 -0.181898 0.776293
-0.191343 -0.181491 0.775301
-0.187947 -0.181757 0.777156
-0.183827 -0.18132 0.775976
-0.178815 -0.179967 0.770847
-0.174568 -0.179344 0.768807
-0.170771 -0.179166 0.768649
-0.165924 -0.177855 0.763604
-0.162047 -0.17755 0.762845
-0.159378 -0.178583 0.767815
-0.15335 -0.175814 0.756413
-0.149714 -0.175721 0.756493
-0.145808 -0.175298 0.755135
-0.141881 -0.174828 0.753546
-0.138293 -0.174763 0.753686
-0.13306 -0.172561 0.744586
-0.128656 -0.171345 0.739714
-0.124826 -0.170846 0.737918
-0.120742 -0.169962 0.734437
-0.117187 -0.169793 0.734029
-0.113668 -0.169667 0.733788
-0.109586 -0.168666 0.729749
-0.105283 -0.16725 0.723897
-0.101172 -0.166056 0.718985
-0.0979943 -0.166364 0.720563
-0.0950123 -0.167037 0.723713
-0.0920362 -0.167771 0.727115
-0.0887897 -0.16805 0.728532
-0.0854225 -0.168113 0.729005
-0.0816564 -0.167364 0.725943
0 0 0
-0.0742856 -0.166023 0.720465
-0.0712732 -0.166833 0.724134
-0.0673696 -0.165534 0.718638
-0.063699 -0.164701 0.715155
-0.0601057 -0.163986 0.712179
-0.0566246 -0.163513 0.71024
-0.0532283 -0.163241 0.709165
-0.0499281 -0.163247 0.709291
-0.0466927 -0.163481 0.710399
-0.043164 -0.162645 0.706852
-0.0398322 -0.162475 0.706189
-0.0365713 -0.162589 0.706755
-0.0329796 -0.161109 0.700386
-0.0296865 -0.160924 0.699638
-0.0263691 -0.160545 0.698042
-0.0231024 -0.160412 0.697505
-0.0198232 -0.160134 0.696334
-0.0165031 -0.159353 0.692972
-0.0133071 -0.159682 0.694427
-0.0101247 -0.160436 0.697726
-0.00684335 -0.159596 0.694089
-0.00359655 -0.15878 0.69055
-0.000385557 -0.159117 0.692019
0.00283507 -0.159229 0.692505
0.00603608 -0.158706 0.690223
0.00928157 -0.15931 0.692835
0.0124314 -0.158384 0.688789
0.0155495 -0.157516 0.68499
0.0187874 -0.15795 0.686847
0.0219272 -0.157553 0.685087
0.0250202 -0.156963 0.682479
0.0281937 -0.156955 0.682395
0.0310327 -0.155274 0.675035
0.0341247 -0.155052 0.67401
0.0373628 -0.155475 0.675784
0.0400396 -0.153678 0.667901
0.0431111 -0.153546 0.667248
0.0458573 -0.152351 0.66197
0.0488005 -0.15192 0.660005
0.0517478 -0.151551 0.658306
0.0541606 -0.149747 0.650362
0.0576361 -0.150915 0.655326
0.0612391 -0.152284 0.661145
0.0636839 -0.150779 0.654483
0.0652002 -0.147314 0.639307
0.0647866 -0.139982 0.607352
0 0 0
0 0 0
0 0 0
0.0728264 -0.133937 0.580521
0.0748847 -0.132783 0.575344
0.0769442 -0.131711 0.570517
0.0794059 -0.131376 0.568874
0.0817512 -0.130876 0.56651
0.0839293 -0.130148 0.563151
0.0865255 -0.130093 0.562693
0.0890433 -0.129927 0.561744
0.0914066 -0.129552 0.559878
0.0940203 -0.129542 0.559581
0.096434 -0.129265 0.558118
0.0989715 -0.129165 0.557403
0.101789 -0.129424 0.558231
0.104411 -0.12943 0.557948
0.106766 -0.129111 0.556254
0.109336 -0.129062 0.555706
0.11197 -0.129089 0.555472
0.114515 -0.129015 0.554787
0.117182 -0.129078 0.554677
0.119957 -0.129255 0.55504
0.122322 -0.128992 0.553496
0.124635 -0.128686 0.551751
0.127437 -0.128887 0.552167
0.130099 -0.128941 0.551933
0.132742 -0.128975 0.55159
0.134997 -0.128638 0.549645
0.137316 -0.128373 0.547992
0.140119 -0.128562 0.548256
0.14276 -0.128599 0.547849
0.14535 -0.128588 0.547221
0.148072 -0.128693 0.547064
0.150652 -0.128674 0.546354
0.153252 -0.128671 0.545697
0.155427 -0.128319 0.543533
0.158058 -0.128347 0.542964
0.160509 -0.128231 0.541761
0.163785 -0.128767 0.54329
0.166277 -0.12868 0.542165
0.168787 -0.128609 0.541085
0.171989 -0.12906 0.542174
0.173345 -0.128132 0.537454
0.176513 -0.128552 0.538367
0.179098 -0.128541 0.537453
0.181692 -0.128536 0.536543
0.18541 -0.129316 0.538883
0.187186 -0.128739 0.535544
0.190049 -0.128915 0.535323
0.192639 -0.128903 0.534303
0.195001 -0.128741 0.532647
0.197845 -0.128897 0.532293
0.200402 -0.128864 0.531144
0.203214 -0.128995 0.530656
0.205872 -0.129025 0.529745
0.208578 -0.129085 0.528949
0.211156 -0.129064 0.527821
0.213803 -0.129086 0.526866
0.216212 -0.128966 0.525335
0.219129 -0.129148 0.525042
0.221898 -0.129238 0.524389
0.224468 -0.129213 0.523281
0.226741 -0.129019 0.52151
0.230957 -0.129923 0.524199
0.233572 -0.129915 0.523235
0.236081 -0.12985 0.522075
0.238789 -0.129895 0.521398
0.24186 -0.130133 0.521543
0.244003 -0.129873 0.519742
0.24653 -0.12982 0.518831
0.249207 -0.129846 0.518297
0.252131 -0.13 0.518335
0.254304 -0.129767 0.5169
0.256354 -0.129477 0.515314
0.258933 -0.129457 0.514879
0.260929 -0.129148 0.513375
0.265456 -0.130086 0.516906
0.267984 -0.130036 0.516589
0.269932 -0.129708 0.515252
0.272164 -0.129522 0.514559
0.275047 -0.129646 0.515181
0.277507 -0.12957 0.51509
0.279814 -0.129425 0.514804
0.28028 -0.128439 0.51125
0.282292 -0.128173 0.510634
0.286135 -0.128735 0.513395
0.287905 -0.128363 0.512506
0.287918 -0.127222 0.508605
0.289136 -0.126628 0.506955
0.289848 -0.125825 0.504524
0.288772 -0.124267 0.499112
0.291135 -0.124203 0.499749
0.288997 -0.122236 0.492773
0.291143 -0.122099 0.493213
0 0 0
0 0 0
-0.4493 -0.21104 0.855643
-0.441682 -0.209493 0.849461
0 0 0
-0.42361 -0.204935 0.831554
-0.413749 -0.202184 0.820867
-0.40671 -0.20077 0.815724
-0.398662 -0.198824 0.808525
-0.393801 -0.198442 0.807796
-0.388382 -0.197769 0.805981
-0.38391 -0.197569 0.806191
-0.375296 -0.19521 0.797674
-0.369255 -0.194153 0.79454
-0.365222 -0.19414 0.795751
-0.356058 -0.191369 0.785707
-0.352611 -0.191643 0.788209
-0.342373 -0.18819 0.775414
-0.33739 -0.18758 0.774342
-0.330765 -0.186032 0.769421
-0.325218 -0.185061 0.766893
-0.320197 -0.18437 0.765536
-0.315824 -0.18404 0.765684
-0.311199 -0.183553 0.765182
-0.305417 -0.182363 0.76174
-0.300206 -0.181489 0.759597
-0.295646 -0.180991 0.759012
-0.290853 -0.180336 0.75775
-0.28625 -0.179784 0.756895
-0.281883 -0.179367 0.756586
-0.277066 -0.178649 0.754976
-0.271963 -0.177724 0.75246
-0.267528 -0.177217 0.751674
-0.263301 -0.176835 0.75139
-0.258399 -0.175983 0.749069
-0.254211 -0.1756 0.748708
-0.250018 -0.175202 0.748248
-0.245473 -0.174542 0.746635
-0.24117 -0.174038 0.745645
-0.237505 -0.173985 0.746557
-0.23686 -0.176177 0.757082
-0.23438 -0.177052 0.761933
-0.231636 -0.177751 0.766008
-0.229217 -0.178726 0.77125
-0.225632 -0.178809 0.772615
-0.22242 -0.179195 0.775264
-0.219461 -0.179802 0.778838
-0.21434 -0.178629 0.774667
-0.208117 -0.176478 0.766213
-0.205384 -0.177264 0.77047
-0.202153 -0.177641 0.772923
-0.198671 -0.177807 0.774433
-0.194165 -0.177046 0.771874
-0.190244 -0.176799 0.771526
-0.185342 -0.175613 0.767047
-0.181827 -0.175719 0.76818
-0.17701 -0.174547 0.763697
-0.17273 -0.173866 0.76133
-0.166311 -0.170957 0.749168
-0.163336 -0.17154 0.752278
-0.15928 -0.170987 0.750386
-0.156137 -0.171413 0.752764
-0.152211 -0.170977 0.751341
-0.148708 -0.171009 0.751945
-0.145288 -0.171139 0.752966
-0.140746 -0.169922 0.748034
-0.13701 -0.169639 0.747197
-0.132683 -0.168591 0.742964
-0.128064 -0.167106 0.736784
-0.123969 -0.166241 0.733315
-0.120288 -0.165898 0.73213
-0.117108 -0.166246 0.733977
-0.11361 -0.166149 0.733846
-0.109062 -0.164464 0.72668
-0.105117 -0.163609 0.72317
-0.101195 -0.162733 0.719546
-0.0980361 -0.163068 0.721263
-0.0946466 -0.163028 0.721313
-0.0913554 -0.163162 0.722116
-0.0884772 -0.164071 0.726342
-0.0848964 -0.163698 0.724882
-0.0808863 -0.162432 0.719453
-0.0764612 -0.160187 0.709675
-0.0723351 -0.158394 0.701884
-0.0706204 -0.161961 0.71784
-0.0670025 -0.161301 0.715052
-0.0633986 -0.160608 0.712107
-0.059825 -0.159919 0.709171
-0.0564561 -0.159729 0.708439
-0.0525646 -0.157945 0.700628
-0.0491452 -0.157437 0.698468
-0.0459635 -0.157672 0.699601
-0.0427689 -0.157896 0.700674
-0.0393552 -0.157282 0.69802
-0.0361664 -0.157536 0.699216
-0.0329885 -0.157893 0.700859
-0.0296883 -0.157678 0.699959
-0.0260338 -0.155297 0.689438
-0.0228409 -0.155388 0.689881
-0.0196619 -0.155618 0.690941
-0.0164169 -0.155314 0.689619
-0.01313 -0.15437 0.685452
-0.00994264 -0.154364 0.685448
-0.00677504 -0.154807 0.687426
-0.00357963 -0.154836 0.687566
-0.00038104 -0.154072 0.684176
0.00280133 -0.154152 0.684527
0.00598957 -0.154298 0.685169
0.00912384 -0.153435 0.681324
0.0122798 -0.153287 0.680652
0.0154534 -0.153375 0.681019
0.0186635 -0.153734 0.682584
0.0216856 -0.152665 0.677804
0.0246754 -0.151669 0.673341
0.0278395 -0.151848 0.67409
0.0309238 -0.151599 0.672937
0.0339171 -0.150991 0.670182
0.0370447 -0.151033 0.670306
0.0400419 -0.150578 0.668218
0.042602 -0.148664 0.659647
0.0455973 -0.148423 0.658499
0.048679 -0.148476 0.658647
0.0509295 -0.146138 0.648181
0.0538734 -0.145939 0.647203
0.0568716 -0.145901 0.646927
0.0596612 -0.145359 0.644407
0.0622993 -0.144517 0.640553
0.0642995 -0.14234 0.630776
0 0 0
0.0638687 -0.129545 0.57382
0.0659757 -0.12844 0.568788
0.068387 -0.12799 0.566648
0.0711386 -0.128187 0.567363
0.0737741 -0.128168 0.567114
0.076394 -0.128124 0.566745
0.0790102 -0.128077 0.566354
0.0813809 -0.127648 0.564264
0.0840618 -0.127717 0.564365
0.0865361 -0.127478 0.563094
0.0890999 -0.12738 0.562439
0.0916254 -0.127235 0.561563
0.0940983 -0.127027 0.560398
0.0967253 -0.127033 0.560162
0.0993409 -0.127024 0.55985
0.101924 -0.126975 0.559346
0.104354 -0.126742 0.558022
0.106784 -0.126522 0.556738
0.109547 -0.126696 0.557179
0.112005 -0.126517 0.55605
0.114552 -0.126445 0.555377
0.117709 -0.127035 0.557594
0.120072 -0.126762 0.556001
0.122332 -0.126393 0.553977
0.124992 -0.126444 0.553778
0.12758 -0.126421 0.553239
0.130003 -0.12624 0.551987
0.132462 -0.126099 0.550896
0.134773 -0.125827 0.549211
0.138009 -0.126411 0.551247
0.140053 -0.125903 0.548497
0.142673 -0.125921 0.548022
0.145447 -0.126072 0.548106
0.148452 -0.126414 0.548995
0.150909 -0.126286 0.547821
0.153423 -0.12621 0.546852
0.156645 -0.126708 0.548346
0.159357 -0.126785 0.547992
0.161682 -0.126555 0.546293
0.163991 -0.126321 0.544554
0.166705 -0.126402 0.544147
0.16947 -0.126518 0.54387
0.172411 -0.126759 0.544109
0.174746 -0.126555 0.54241
0.176881 -0.126214 0.540108
0.179391 -0.126147 0.538954
0.181692 -0.125936 0.537172
0.185549 -0.126796 0.539926
0.188699 -0.127154 0.540518
0.191099 -0.127004 0.538927
0.193271 -0.126709 0.536705
0.195512 -0.126467 0.534693
0.198894 -0.126959 0.535767
0.201486 -0.126941 0.53467
0.205075 -0.127543 0.53617
0.208135 -0.127805 0.536222
0.209776 -0.1272 0.532631
0.212555 -0.127292 0.531958
0.214968 -0.127164 0.530366
0.219159 -0.128079 0.533118
0.219563 -0.126786 0.526687
0.222862 -0.127175 0.527261
0.226536 -0.127766 0.52868
0.229405 -0.127895 0.528198
0.232417 -0.128099 0.52805
0.23458 -0.127837 0.526008
0.237678 -0.128084 0.526096
0.240302 -0.128073 0.52516
0.243014 -0.128109 0.524461
0.245951 -0.128262 0.524289
0.248068 -0.127987 0.522428
0.253256 -0.129287 0.527047
0.255949 -0.129299 0.526474
0.258124 -0.129052 0.524916
0.259921 -0.128623 0.522693
0.26154 -0.128115 0.520231
0.265741 -0.12887 0.522972
0.266065 -0.127747 0.518178
0.268986 -0.127882 0.518568
0.272356 -0.128226 0.519886
0.275213 -0.128324 0.520291
0.277433 -0.128125 0.519578
0.27946 -0.127842 0.518606
0.281724 -0.127673 0.518174
0.286521 -0.128643 0.522452
0.28862 -0.128395 0.521866
0.288073 -0.126985 0.516629
0.289631 -0.126521 0.515305
0.291269 -0.126099 0.514225
0.291688 -0.125161 0.511104
0.285012 -0.121223 0.495767
0.280658 -0.118332 0.484734
0.286519 -0.119761 0.491447
0.288962 -0.119749 0.492314
0.286611 -0.117767 0.485123
0.28621 -0.116613 0.481368
0.245974 -0.099383 0.41114
-0.436309 -0.200707 0.830926
0 0 0
0 0 0
-0.418552 -0.198308 0.82184
-0.411095 -0.19674 0.815878
-0.402716 -0.194694 0.808046
-0.394699 -0.192783 0.800876
-0.387626 -0.191298 0.795574
-0.379896 -0.189454 0.788867
-0.374564 -0.18878 0.787113
-0.368626 -0.187782 0.784091
-0.364571 -0.187733 0.785103
-0.359812 -0.187316 0.784649
-0.35124 -0.184882 0.775792
-0.346877 -0.184634 0.776143
-0.34145 -0.183808 0.774106
-0.335661 -0.182766 0.771183
-0.330587 -0.182093 0.769839
-0.324786 -0.181 0.766727
-0.320431 -0.180695 0.766963
-0.316024 -0.180354 0.767051
-0.3112 -0.179764 0.766078
-0.305997 -0.178937 0.764088
-0.301189 -0.178324 0.762991
-0.295541 -0.177192 0.759651
-0.291282 -0.176873 0.759776
-0.286593 -0.176283 0.758709
-0.281485 -0.175416 0.756419
-0.276957 -0.174891 0.755576
-0.272361 -0.174309 0.754452
-0.267479 -0.173526 0.752419
-0.262659 -0.172762 0.750432
-0.258392 -0.172345 0.749913
-0.254496 -0.172167 0.750403
-0.250575 -0.171967 0.750763
-0.245418 -0.170901 0.7473
-0.241231 -0.170488 0.746654
-0.237583 -0.170449 0.747611
-0.236037 -0.17194 0.755256
-0.23271 -0.17216 0.757298
-0.230882 -0.173514 0.764304
-0.228085 -0.174172 0.768223
-0.224684 -0.174381 0.770139
-0.220545 -0.174017 0.769485
-0.216717 -0.173888 0.769842
-0.211063 -0.172265 0.763543
-0.207219 -0.172089 0.763618
-0.204051 -0.172478 0.766168
-0.201294 -0.173234 0.770329
-0.194769 -0.170716 0.759892
-0.191065 -0.170622 0.760207
-0.187317 -0.170484 0.760296
-0.182226 -0.169096 0.754773
-0.179211 -0.169616 0.757743
-0.174509 -0.168528 0.7535
-0.170028 -0.167613 0.750003
-0.165523 -0.166635 0.746188
-0.161656 -0.16627 0.745093
-0.158768 -0.166919 0.748519
-0.154769 -0.166403 0.7467
-0.15097 -0.166083 0.745737
-0.146332 -0.164803 0.74044
-0.143233 -0.165235 0.742813
-0.139423 -0.164849 0.741489
-0.135625 -0.164458 0.740117
-0.13133 -0.163428 0.735852
-0.127214 -0.16257 0.732342
-0.123536 -0.16224 0.731191
-0.11969 -0.161666 0.728918
-0.115355 -0.160377 0.723405
-0.111627 -0.159879 0.721444
-0.107979 -0.15947 0.719864
-0.104715 -0.159618 0.720788
-0.100539 -0.158342 0.715266
-0.0972964 -0.158496 0.716192
-0.0942354 -0.158969 0.718544
-0.0905824 -0.158441 0.716362
-0.0871442 -0.158263 0.715747
-0.0841562 -0.158921 0.718904
-0.0802582 -0.157843 0.714201
-0.075939 -0.155809 0.705152
-0.072466 -0.155404 0.703471
-0.0690497 -0.15509 0.702184
-0.0661259 -0.155904 0.706004
-0.0617878 -0.153296 0.69431
-0.0596476 -0.156153 0.707366
-0.05453 -0.151094 0.684552
-0.052234 -0.153711 0.696504
-0.0488369 -0.153219 0.694366
-0.0455453 -0.153012 0.69351
-0.0422141 -0.15263 0.691855
-0.0390636 -0.152893 0.693115
-0.0358043 -0.152739 0.692479
-0.032768 -0.153599 0.696437
-0.029216 -0.151966 0.689082
-0.026006 -0.151928 0.688956
-0.0227787 -0.151765 0.688256
-0.0195972 -0.151904 0.688919
-0.0162828 -0.150865 0.684235
-0.0130672 -0.150459 0.68242
-0.00984798 -0.149738 0.679166
-0.00667888 -0.149459 0.677912
-0.00353101 -0.14958 0.678469
-0.000378006 -0.14969 0.678971
0.00278831 -0.150267 0.681589
0.00593235 -0.149668 0.678866
0.00900794 -0.148358 0.672911
0.0122116 -0.149288 0.677114
0.0152862 -0.148584 0.673897
0.0183494 -0.148026 0.67134
0.0214008 -0.14755 0.669149
0.0244396 -0.147118 0.667155
0.0274177 -0.14646 0.664126
0.0304145 -0.146024 0.662104
0.0333703 -0.14549 0.659629
0.0363871 -0.145289 0.658661
0.0394148 -0.14516 0.658009
0.0422674 -0.144451 0.654725
0.0452172 -0.144147 0.65327
0.0477983 -0.14278 0.646993
0.0507899 -0.142728 0.646671
0.0534791 -0.14188 0.642735
0.0561228 -0.141008 0.638681
0.0586989 -0.140062 0.634289
0.0614445 -0.139591 0.632043
0.0637943 -0.138306 0.626101
0.0630447 -0.130707 0.591579
0.0643038 -0.127735 0.577999
0.0664868 -0.126763 0.573466
0.0687864 -0.12608 0.570234
0.0713688 -0.125946 0.56948
0.0738427 -0.125638 0.567928
0.0764171 -0.125516 0.567209
0.0790216 -0.125451 0.566734
0.0815842 -0.125325 0.565977
0.0840169 -0.125013 0.564373
0.0866336 -0.124986 0.564044
0.0891255 -0.124786 0.562923
0.091661 -0.124657 0.562109
0.0945937 -0.12506 0.563684
0.0971025 -0.124896 0.56269
0.0994856 -0.124583 0.561015
0.102034 -0.124487 0.560305
0.104786 -0.12464 0.560699
0.107805 -0.125094 0.562436
0.111104 -0.125843 0.565478
0.112216 -0.124139 0.557485
0.115984 -0.125383 0.56272
0.118816 -0.125583 0.563248
0.120908 -0.125009 0.560288
0.123534 -0.124999 0.559843
0.12621 -0.12504 0.559607
0.129586 -0.125758 0.56238
0.132735 -0.126232 0.564041
0.134285 -0.125196 0.55894
0.137066 -0.125326 0.559025
0.140234 -0.125797 0.560614
0.143374 -0.126227 0.561992
0.146001 -0.126198 0.561306
0.148401 -0.125977 0.559745
0.151088 -0.126003 0.559264
0.153403 -0.125722 0.5574
0.155973 -0.125658 0.556474
0.158663 -0.125691 0.555956
0.161385 -0.125747 0.555516
0.163888 -0.125634 0.554309
0.165711 -0.125011 0.550832
0.167397 -0.124306 0.546979
0.170248 -0.124475 0.54695
0.173333 -0.124806 0.547611
0.175923 -0.124777 0.546663
0.178036 -0.124416 0.54424
0.180432 -0.12426 0.542695
0.182668 -0.123999 0.540674
0.184737 -0.123635 0.538183
0.187757 -0.123908 0.538446
0.190566 -0.124036 0.538056
0.193634 -0.124327 0.538349
0.195776 -0.124023 0.536051
0.197814 -0.123663 0.533495
0.201717 -0.124462 0.535923
0.205134 -0.124945 0.536965
0.208475 -0.125371 0.537741
0.211572 -0.12564 0.537831
0.213907 -0.125457 0.535975
0.216652 -0.125515 0.535149
0.218989 -0.125338 0.533322
0.223622 -0.126464 0.537034
0.225945 -0.126272 0.535151
0.228773 -0.126364 0.534483
0.231945 -0.126641 0.534611
0.235156 -0.126933 0.534819
0.23704 -0.12651 0.532044
0.238981 -0.126128 0.529475
0.241502 -0.126055 0.52825
0.243941 -0.125943 0.526899
0.248938 -0.127139 0.531067
0.252039 -0.127351 0.531168
0.256024 -0.128002 0.53315
0.258106 -0.127697 0.531216
0.260531 -0.127566 0.530078
0.261906 -0.126929 0.526911
0.264837 -0.127052 0.526976
0.270221 -0.128336 0.531936
0.272738 -0.128248 0.531281
0.2734 -0.127297 0.527142
0.274767 -0.12669 0.524513
0.277723 -0.126821 0.525022
0.279877 -0.126586 0.524103
0.282073 -0.126374 0.523365
0.28515 -0.126557 0.524348
0.288585 -0.126895 0.526054
0.290472 -0.126551 0.525018
0.290614 -0.125461 0.52096
0.290321 -0.124204 0.516277
0.291964 -0.12379 0.515169
0.291239 -0.122389 0.510011
0.280145 -0.116693 0.486985
0.285911 -0.118058 0.493462
0.289356 -0.11845 0.495946
0.287736 -0.116779 0.489841
0.290498 -0.116899 0.491299
0.290651 -0.115977 0.488422
0.281426 -0.111359 0.469982
-0.424984 -0.191376 0.809411
-0.417191 -0.189707 0.802556
-0.409654 -0.188121 0.796183
-0.405525 -0.188085 0.796491
-0.400389 -0.187577 0.794919
-0.394653 -0.186774 0.792216
-0.389751 -0.186353 0.791241
-0.383164 -0.18511 0.786874
-0.378781 -0.184916 0.787063
-0.372841 -0.18395 0.784051
-0.368058 -0.183541 0.78349
-0.361705 -0.18233 0.779578
-0.356014 -0.181431 0.77705
-0.351552 -0.181145 0.777204
-0.347147 -0.180882 0.777505
-0.341244 -0.179824 0.774421
-0.336036 -0.179113 0.772852
-0.330536 -0.178227 0.770549
-0.325709 -0.177687 0.76975
-0.321066 -0.177237 0.769347
-0.315884 -0.176474 0.767585
-0.31129 -0.176025 0.767182
-0.306468 -0.175435 0.766154
-0.301599 -0.174802 0.764922
-0.296615 -0.174087 0.763306
-0.292654 -0.173961 0.764252
-0.286867 -0.172732 0.760324
-0.281348 -0.171634 0.756933
-0.277031 -0.17125 0.756656
-0.272142 -0.170498 0.754716
-0.267472 -0.169864 0.753262
-0.263064 -0.169381 0.752441
-0.258589 -0.168841 0.75133
-0.254514 -0.16855 0.751288
-0.25024 -0.168117 0.750582
-0.245379 -0.167271 0.747989
-0.241298 -0.16694 0.747658
-0.237591 -0.166861 0.74842
-0.234737 -0.167388 0.751873
-0.23182 -0.167887 0.755171
-0.228089 -0.167802 0.755815
-0.224858 -0.168088 0.758099
-0.221658 -0.168406 0.760501
-0.217601 -0.168074 0.759932
-0.212301 -0.166754 0.754859
-0.209524 -0.167404 0.75867
-0.206537 -0.167907 0.761784
-0.202659 -0.16769 0.76161
-0.197507 -0.166392 0.756486
-0.192615 -0.165269 0.752121
-0.188212 -0.164531 0.749474
-0.184315 -0.164216 0.748716
-0.179581 -0.163128 0.744408
-0.1754 -0.162509 0.742207
-0.171518 -0.162148 0.74115
-0.168287 -0.1624 0.742875
-0.164573 -0.162185 0.742444
-0.160152 -0.161251 0.738691
-0.156407 -0.160971 0.737905
-0.152546 -0.160555 0.736478
-0.147838 -0.159209 0.730756
-0.145 -0.15986 0.734176
-0.141814 -0.160149 0.735922
-0.138036 -0.159768 0.734569
-0.133998 -0.159059 0.731683
-0.130817 -0.159357 0.733412
-0.126269 -0.15796 0.727323
-0.123084 -0.158239 0.728932
-0.118119 -0.15618 0.719749
-0.115026 -0.156548 0.721737
-0.111035 -0.155679 0.718003
-0.107593 -0.15555 0.717666
-0.10388 -0.155008 0.715412
-0.0996566 -0.153642 0.709339
-0.096026 -0.153129 0.707187
-0.0929843 -0.153552 0.709344
-0.090184 -0.154419 0.713546
-0.0865792 -0.153922 0.711434
-0.0821684 -0.151896 0.70224
-0.0790648 -0.152218 0.703891
-0.0755779 -0.151799 0.702103
-0.0720216 -0.151196 0.699454
-0.0687378 -0.151134 0.699303
-0.0643087 -0.148424 0.686883
-0.0608197 -0.147713 0.683706
-0.0574387 -0.1472 0.681439
-0.0541552 -0.146892 0.680111
-0.0511937 -0.147474 0.682893
-0.0479172 -0.147164 0.681545
-0.0447711 -0.14724 0.681974
-0.0414147 -0.146584 0.679003
-0.038276 -0.146652 0.679385
-0.0352828 -0.147341 0.682635
-0.0321084 -0.147335 0.682659
-0.029041 -0.147872 0.685194
-0.0257478 -0.147249 0.682352
-0.022404 -0.146122 0.677166
-0.0193882 -0.147116 0.681803
-0.0161228 -0.146233 0.677738
-0.0130049 -0.146584 0.67939
-0.00976122 -0.14529 0.673408
-0.00666294 -0.145959 0.676519
-0.00351335 -0.145694 0.6753
-0.000373606 -0.144828 0.67129
0.00273932 -0.144515 0.669837
0.00586702 -0.1449 0.671614
0.00895794 -0.144425 0.669399
0.0120176 -0.14382 0.666582
0.0150272 -0.142987 0.6627
0.01812 -0.143094 0.663172
0.0212865 -0.143668 0.6658
0.0241218 -0.142144 0.658706
0.0271878 -0.14217 0.658784
0.0300218 -0.1411 0.653784
0.0329191 -0.140497 0.650941
0.0361967 -0.141482 0.655449
0.0389277 -0.140344 0.650114
0.0418526 -0.140018 0.648539
0.0445272 -0.138955 0.643543
0.0474088 -0.138631 0.641965
0.0500301 -0.137629 0.637244
0.0529751 -0.13758 0.636927
0.0557577 -0.137137 0.63478
0.0582547 -0.136072 0.629744
0.061065 -0.135805 0.628399
0.0635969 -0.134971 0.624427
0.0642091 -0.130315 0.602764
0.0654866 -0.127342 0.588889
0.0671755 -0.125376 0.579665
0.0690556 -0.123905 0.572727
0.0717314 -0.123918 0.572641
0.0748202 -0.124618 0.57572
0.0777286 -0.124979 0.577224
0.0800766 -0.124445 0.574585
0.0825667 -0.12416 0.573084
0.085798 -0.124972 0.576637
0.0881386 -0.124477 0.574147
0.0914551 -0.125348 0.57795
0.094105 -0.125283 0.577417
0.0952339 -0.123252 0.567822
0.098349 -0.123832 0.570245
0.10228 -0.125382 0.577113
0.10409 -0.124319 0.571947
0.106285 -0.123757 0.569072
0.109685 -0.124592 0.572605
0.112338 -0.124559 0.572132
0.114545 -0.124044 0.569434
0.117468 -0.124311 0.570308
0.119756 -0.123908 0.568096
0.12322 -0.124714 0.571407
0.125145 -0.12396 0.567557
0.127882 -0.124025 0.56744
0.130352 -0.123835 0.566135
0.133189 -0.123993 0.566409
0.135534 -0.123696 0.564581
0.138269 -0.12376 0.564386
0.141014 -0.123831 0.564198
0.142982 -0.123228 0.560927
0.146276 -0.12377 0.562845
0.149197 -0.123982 0.563238
0.151271 -0.123495 0.560437
0.15393 -0.123495 0.559825
0.157173 -0.123956 0.561276
0.159532 -0.123715 0.559527
0.161992 -0.123559 0.558144
0.1645 -0.123444 0.556922
0.166408 -0.12289 0.553699
0.167903 -0.122054 0.54919
0.169066 -0.121005 0.543713
0.171861 -0.121137 0.543527
0.174781 -0.121354 0.543693
0.178237 -0.12193 0.54544
0.181162 -0.122132 0.545485
0.182817 -0.121484 0.541714
0.184707 -0.121009 0.538697
0.187066 -0.120849 0.53707
0.189626 -0.120822 0.536013
0.192366 -0.120909 0.535439
0.196165 -0.12165 0.53774
0.198622 -0.12155 0.536298
0.201242 -0.121552 0.535289
0.205273 -0.122394 0.53796
0.208929 -0.122995 0.539542
0.21262 -0.123601 0.541127
0.215754 -0.123872 0.541231
0.218405 -0.123863 0.540103
0.221156 -0.12391 0.539216
0.22509 -0.12461 0.541168
0.22841 -0.124959 0.541588
0.232222 -0.125565 0.543126
0.235442 -0.12584 0.543243
0.238168 -0.125849 0.542224
0.240659 -0.125735 0.5407
0.240569 -0.124289 0.533494
0.242798 -0.124061 0.531561
0.247411 -0.125042 0.534846
0.250981 -0.12548 0.535846
0.253952 -0.125613 0.535591
0.256487 -0.12553 0.53447
0.259042 -0.125458 0.533461
0.261925 -0.125545 0.533195
0.264973 -0.125708 0.533325
0.268456 -0.126073 0.534381
0.270921 -0.125957 0.533478
0.27256 -0.125462 0.531058
0.273481 -0.124651 0.527382
0.275184 -0.124208 0.525352
0.277954 -0.12425 0.525461
0.281072 -0.124446 0.526306
0.282896 -0.124071 0.524819
0.285625 -0.124095 0.525112
0.288005 -0.12397 0.524853
0.289342 -0.123401 0.522799
0.289551 -0.122366 0.518846
0.289872 -0.121397 0.515243
0.290865 -0.120724 0.512965
0.286308 -0.11778 0.501092
0.284478 -0.116 0.494211
0.281948 -0.113967 0.486299
0.289972 -0.1162 0.49665
0.285276 -0.11334 0.485291
0.289966 -0.114226 0.490015
0 0 0
0 0 0
-0.418609 -0.184446 0.797344
-0.41508 -0.184682 0.798629
-0.40927 -0.183898 0.795632
-0.404775 -0.183695 0.795271
-0.399761 -0.183249 0.793983
-0.393856 -0.182382 0.790981
-0.388966 -0.181973 0.790069
-0.383597 -0.181328 0.788235
-0.378355 -0.180731 0.786701
-0.373424 -0.18027 0.785848
-0.36823 -0.179672 0.784471
-0.362897 -0.178992 0.782802
-0.357786 -0.178408 0.781612
-0.352099 -0.17752 0.779138
-0.347689 -0.177263 0.779475
-0.342741 -0.176724 0.778603
-0.336643 -0.175572 0.775054
-0.332014 -0.175169 0.774819
-0.326114 -0.174077 0.771547
-0.320777 -0.173264 0.769506
-0.315838 -0.172648 0.768335
-0.311416 -0.172304 0.768364
-0.306442 -0.171642 0.766964
-0.302202 -0.17138 0.767331
-0.296881 -0.17049 0.764867
