ply
format ascii 1.0
comment Generated by sampleExportPLY
element vertex 1851
property float x
property float y
property float z
element face 0
property list uchar int vertex_index
end_header
0.14386 -0.219534 0.70186
0.148234 -0.221054 0.706068
0.154974 -0.225955 0.721036
0.156176 -0.222745 0.710091
0.157273 -0.219525 0.699111
0.158438 -0.216531 0.688852
0 0 0
0.166253 -0.218102 0.692316
0 0 0
0.172618 -0.217722 0.689489
0.173774 -0.215036 0.680146
0.174628 -0.212082 0.669957
0.17826 -0.212547 0.670557
0 0 0
0 0 0
0.189946 -0.214743 0.674712
0.188893 -0.209926 0.658631
0.191967 -0.209779 0.657206
0.199933 -0.214895 0.672228
0.204484 -0.216235 0.675384
0.206143 -0.214523 0.668995
0.206594 -0.211626 0.658919
0.209212 -0.211005 0.655929
0.212518 -0.211086 0.655113
0.218909 -0.214183 0.66363
0.222643 -0.214627 0.663901
0.225417 -0.214147 0.661305
0.226655 -0.212241 0.654317
0.227553 -0.210076 0.646551
0.233326 -0.212409 0.652628
0.237411 -0.213162 0.653841
0.236987 -0.209902 0.642767
0.241093 -0.210687 0.644107
0.244044 -0.210454 0.642352
0.248268 -0.211312 0.643944
0.251926 -0.211672 0.644038
0.253154 -0.210007 0.638009
0.255838 -0.209577 0.635777
0.25868 -0.209286 0.634008
0.2614 -0.208904 0.632013
0.26392 -0.208372 0.62962
0.265089 -0.2068 0.624143
0.268202 -0.206763 0.623365
0.271257 -0.206683 0.622519
0.276405 -0.208182 0.626489
0.278445 -0.207332 0.623459
0.280824 -0.206751 0.621312
0.282821 -0.205905 0.618447
0.287502 -0.207009 0.621519
0.291719 -0.20776 0.623604
0.29463 -0.207574 0.622959
0.296477 -0.20665 0.620182
0.298752 -0.206041 0.618432
0.297915 -0.203321 0.610425
0.299343 -0.202187 0.607256
0.301232 -0.201384 0.60516
0.306315 -0.202711 0.609544
0.307439 -0.201418 0.606127
0.309465 -0.200735 0.604618
0.312148 -0.200488 0.604494
0.312633 -0.198848 0.600237
0.310265 -0.195442 0.590701
0.311112 -0.194107 0.587472
0.312999 -0.19344 0.586323
0.316765 -0.193936 0.588762
0.318737 -0.193334 0.587928
0.321584 -0.19327 0.588785
0.322169 -0.191859 0.585589
0.32203 -0.190047 0.581202
0.321331 -0.187939 0.575942
0 0 0
0 0 0
0 0 0
0 0 0
0 0 0
0 0 0
0 0 0
0 0 0
-0.48809 -0.304992 0.934494
-0.484777 -0.305888 0.936204
-0.483289 -0.307965 0.941633
-0.480637 -0.309334 0.945009
-0.477656 -0.310517 0.94793
-0.472901 -0.310559 0.94749
-0.467509 -0.310179 0.945888
-0.462541 -0.310076 0.945256
-0.457599 -0.309988 0.9448
-0.449147 -0.307495 0.93714
0 0 0
0 0 0
0 0 0
-0.373421 -0.266998 0.814585
-0.371025 -0.268262 0.81892
-0.361246 -0.264156 0.806953
-0.358579 -0.265215 0.810853
-0.353875 -0.264775 0.810261
-0.349443 -0.264531 0.810352
-0.345943 -0.264994 0.812689
-0.340761 -0.264165 0.811136
-0.336524 -0.264057 0.811861
-0.333109 -0.2646 0.814652
-0.330453 -0.265766 0.819424
-0.326337 -0.265773 0.820678
-0.322043 -0.265634 0.821523
-0.318568 -0.266174 0.824509
-0.313692 -0.265544 0.8239
-0.309062 -0.265107 0.823913
-0.306163 -0.266164 0.82859
-0.30367 -0.267607 0.834498
-0.29769 -0.265975 0.830826
-0.296693 -0.268811 0.841123
-0.292873 -0.269134 0.843574
-0.287066 -0.267615 0.84024
-0.281748 -0.266513 0.838198
0 0 0
-0.238259 -0.232193 0.732698
-0.233049 -0.230603 0.728873
-0.228244 -0.22937 0.72615
-0.224929 -0.22962 0.728095
-0.219951 -0.228153 0.724574
-0.215457 -0.227148 0.722485
-0.210904 -0.226047 0.72006
-0.206595 -0.225173 0.71833
-0.202767 -0.224804 0.718178
-0.199242 -0.224763 0.719053
-0.197078 -0.226283 0.724904
-0.194074 -0.226876 0.72777
-0.189662 -0.225816 0.725304
-0.186144 -0.2258 0.726164
-0.182469 -0.225589 0.726372
-0.178481 -0.224975 0.725255
-0.174496 -0.22434 0.72404
-0.170807 -0.224068 0.723967
-0.166765 -0.223311 0.722304
-0.162993 -0.222893 0.721705
-0.159446 -0.22277 0.722035
-0.154277 -0.220325 0.714812
-0.150692 -0.220083 0.714701
-0.144212 -0.215504 0.700469
-0.140397 -0.214785 0.698747
-0.13687 -0.214481 0.698352
-0.13341 -0.214269 0.698233
-0.129811 -0.213818 0.697314
-0.126526 -0.213875 0.698028
-0.123271 -0.213986 0.698902
-0.119851 -0.213809 0.698816
-0.116218 -0.213233 0.697401
-0.112767 -0.212964 0.696975
-0.109141 -0.212339 0.695359
-0.105405 -0.211456 0.692883
-0.10209 -0.211386 0.693048
-0.0986322 -0.211007 0.692184
-0.0952425 -0.210753 0.69171
-0.0917636 -0.210275 0.690489
-0.0884601 -0.21018 0.690504
-0.0849538 -0.209577 0.688836
-0.0816919 -0.209553 0.689054
-0.0784544 -0.209592 0.689466
-0.0750443 -0.209153 0.688292
-0.071766 -0.209059 0.688236
-0.0684571 -0.208862 0.687829
-0.065203 -0.208821 0.687923
-0.0619232 -0.208689 0.687704
-0.058505 -0.208051 0.685802
-0.0552134 -0.207815 0.685212
-0.0519982 -0.207854 0.68552
-0.0487315 -0.20768 0.68511
-0.0454633 -0.207474 0.684582
-0.042198 -0.207251 0.683988
-0.038935 -0.207002 0.683299
-0.0356114 -0.206359 0.681294
-0.0323761 -0.20615 0.680714
-0.0291747 -0.206135 0.680761
-0.025972 -0.206106 0.680752
-0.0227304 -0.205717 0.679543
-0.0195422 -0.205763 0.679761
-0.0163313 -0.205542 0.679086
-0.013125 -0.205284 0.67828
-0.00993453 -0.205188 0.678
-0.0067376 -0.204806 0.676764
-0.0035513 -0.204353 0.675283
-0.000379909 -0.204358 0.675306
0.00279051 -0.204281 0.675046
0.0059626 -0.204343 0.675237
0.00913166 -0.204294 0.675053
0.0122454 -0.203352 0.671906
0.0153942 -0.203259 0.671557
0.018568 -0.203471 0.672203
0.0217106 -0.203329 0.671673
0.0248517 -0.203211 0.67121
0.0279579 -0.202867 0.669989
0.0310469 -0.20248 0.668619
0.0341275 -0.202115 0.667308
0.0373128 -0.202378 0.668064
0.0404224 -0.202223 0.667426
0.0435136 -0.202004 0.666567
0.0468094 -0.2027 0.66872
0.0506541 -0.205537 0.677916
0.05411 -0.206552 0.681093
0.0584543 -0.210656 0.694436
0.0620235 -0.21168 0.69761
0.0656919 -0.212922 0.701487
0.0694746 -0.214398 0.706119
0.0728821 -0.214635 0.706653
0.0753649 -0.212246 0.698533
0.0777638 -0.209831 0.690319
0.0830865 -0.215182 0.707637
0.0866327 -0.215697 0.709026
0.0905952 -0.217172 0.713553
0.0948119 -0.219128 0.71964
0.0989107 -0.220685 0.724398
0.102651 -0.221365 0.726254
0.108407 -0.226208 0.741744
0.11199 -0.226354 0.741801
0.115432 -0.226215 0.74091
0.118207 -0.224816 0.735873
0.120898 -0.223342 0.73058
0.11648 -0.209183 0.683806
0.120057 -0.20976 0.685217
0.124363 -0.211548 0.690559
0.128356 -0.212724 0.693875
0.133336 -0.215437 0.702175
0.137474 -0.216689 0.705681
0.141041 -0.217004 0.706111
0.145664 -0.218889 0.711626
0.151246 -0.222099 0.721406
0.155543 -0.223319 0.724689
0.158987 -0.223289 0.723889
0.15962 -0.219396 0.710557
0 0 0
0 0 0
0.168313 -0.21743 0.701928
0.170276 -0.215642 0.695362
0.173313 -0.215258 0.693308
0.175873 -0.214307 0.689407
0.177775 -0.212604 0.683078
0.178482 -0.20956 0.672433
0.180982 -0.208693 0.668766
0.181027 -0.205074 0.656282
0.183314 -0.204077 0.652185
0.187959 -0.205695 0.656418
0.194312 -0.209096 0.666302
0 0 0
0.195667 -0.20375 0.647311
0.199135 -0.204063 0.647299
0.201929 -0.203687 0.645088
0.208356 -0.20693 0.654306
0.210346 -0.205736 0.649467
0.211186 -0.203469 0.641249
0.21392 -0.203067 0.638914
0.216645 -0.202668 0.636582
0.219228 -0.202149 0.633874
0.229425 -0.208567 0.652885
0.229631 -0.20585 0.643278
0.231233 -0.204442 0.637788
0.234167 -0.204234 0.636054
0.23715 -0.204073 0.634484
0.2417 -0.205248 0.637072
0.247893 -0.207769 0.643841
0.247092 -0.204438 0.632504
0.253545 -0.207118 0.639792
0.255781 -0.206329 0.636389
0.258012 -0.205555 0.633078
0.264985 -0.208532 0.641353
0.261652 -0.203424 0.624818
0.263906 -0.202731 0.621916
0.268448 -0.203791 0.624447
0.272024 -0.204101 0.624736
0.274632 -0.203686 0.622869
0.275827 -0.202244 0.617937
0.277831 -0.201422 0.614974
0.28131 -0.201675 0.615369
0.281877 -0.199857 0.609524
0.283563 -0.198865 0.606277
0.284745 -0.197543 0.602108
0.290958 -0.199704 0.608633
0.293162 -0.199096 0.6068
0.297628 -0.200021 0.60972
0.294454 -0.195845 0.597172
0.295184 -0.194325 0.592795
0.297751 -0.194032 0.592239
0.302072 -0.194878 0.595235
0.30266 -0.193321 0.590971
0.311564 -0.197055 0.602959
0.312614 -0.195798 0.599757
0.309694 -0.192101 0.589139
0.308779 -0.189708 0.582563
0.311297 -0.189448 0.582595
0.317015 -0.191123 0.588649
0.318657 -0.190332 0.587174
0.320082 -0.189427 0.5854
0.321786 -0.188702 0.584233
0.322601 -0.187474 0.581553
0.317656 -0.182951 0.568668
0 0 0
0 0 0
0 0 0
0 0 0
0 0 0
0 0 0
0 0 0
0 0 0
-0.488553 -0.300543 0.934722
-0.48452 -0.300981 0.935115
-0.482125 -0.302455 0.93884
-0.481454 -0.305051 0.946158
-0.479212 -0.306694 0.950635
-0.473933 -0.306406 0.949251
-0.468648 -0.306109 0.947968
-0.462638 -0.305328 0.945315
-0.4534 -0.302376 0.936074
0 0 0
0 0 0
0 0 0
-0.379003 -0.263857 0.817568
-0.370813 -0.261019 0.809224
-0.365765 -0.260355 0.807709
-0.36196 -0.26057 0.80902
-0.355503 -0.25886 0.804441
-0.351538 -0.258945 0.805524
-0.347203 -0.258756 0.805836
-0.343366 -0.258939 0.807382
-0.340131 -0.259585 0.810445
-0.335699 -0.259323 0.810741
-0.331517 -0.259249 0.811682
-0.329092 -0.260564 0.817029
-0.325217 -0.260751 0.818891
-0.31985 -0.25973 0.816998
-0.315101 -0.259192 0.816647
-0.311391 -0.259505 0.819003
-0.307962 -0.260064 0.822164
-0.30379 -0.260002 0.823378
-0.300514 -0.260716 0.827065
-0.296485 -0.260787 0.828726
-0.292662 -0.261044 0.830978
-0.289282 -0.261709 0.834534
-0.28538 -0.261914 0.836622
0 0 0
0 0 0
-0.240027 -0.230286 0.739315
-0.233963 -0.227915 0.732902
-0.230086 -0.227634 0.73318
-0.224952 -0.22608 0.729332
-0.222828 -0.22755 0.735215
-0.21912 -0.227425 0.73593
-0.215177 -0.227047 0.735802
-0.210613 -0.22599 0.733446
-0.207295 -0.226257 0.735355
-0.203636 -0.226154 0.736041
-0.199625 -0.22565 0.735392
-0.195008 -0.224431 0.732379
-0.190511 -0.223307 0.729643
-0.186838 -0.223124 0.729952
-0.182427 -0.222036 0.727269
-0.178423 -0.22141 0.726068
-0.174388 -0.220722 0.72463
-0.169771 -0.219253 0.720599
-0.163944 -0.216128 0.711084
-0.159717 -0.215023 0.708176
-0.15604 -0.214628 0.707579
-0.151608 -0.213154 0.703396
-0.147992 -0.212785 0.702831
-0.144335 -0.21234 0.701991
-0.140459 -0.211544 0.699961
-0.136912 -0.211217 0.699464
-0.133437 -0.210987 0.699263
-0.129963 -0.210747 0.699008
-0.126535 -0.210571 0.698944
-0.12334 -0.210783 0.700148
-0.119959 -0.210681 0.700289
-0.116366 -0.210191 0.699121
-0.112892 -0.209892 0.698569
-0.109404 -0.209548 0.697849
-0.10573 -0.208817 0.695818
-0.102108 -0.208142 0.693956
-0.0988008 -0.208088 0.694144
-0.0953363 -0.207686 0.693159
-0.0919195 -0.207364 0.69242
-0.0885422 -0.20711 0.691894
-0.0851021 -0.206685 0.690777
-0.0818098 -0.206598 0.69078
-0.0785821 -0.206675 0.691313
-0.0752442 -0.206456 0.690841
-0.0718066 -0.205931 0.689333
-0.0688244 -0.206724 0.692223
-0.0651988 -0.205567 0.688573
-0.0618811 -0.205311 0.687924
-0.0585901 -0.20512 0.687481
-0.0553343 -0.205038 0.687388
-0.0520661 -0.204896 0.687085
-0.0488444 -0.20493 0.687361
-0.0455461 -0.204626 0.686488
-0.0422475 -0.204274 0.685445
-0.0389933 -0.204095 0.684973
-0.0357193 -0.203772 0.684002
-0.0324543 -0.203441 0.682999
-0.0291913 -0.203052 0.681785
-0.0260131 -0.203228 0.682463
-0.0227977 -0.203124 0.682187
-0.0195572 -0.202725 0.680913
-0.0163375 -0.202429 0.67997
-0.0131303 -0.20218 0.679178
-0.00993611 -0.202036 0.67873
-0.00674903 -0.20197 0.678532
-0.00355629 -0.201464 0.67685
-0.000380161 -0.20132 0.676373
0.00279608 -0.201512 0.677013
0.00597232 -0.201499 0.676957
0.00914436 -0.201403 0.676611
0.0122615 -0.20046 0.673409
0.0154321 -0.200596 0.673826
0.0185916 -0.200568 0.67368
0.0217391 -0.200436 0.673177
0.0248694 -0.2002 0.672314
0.0279973 -0.2 0.67156
0.0310866 -0.199593 0.670101
0.0341587 -0.19916 0.668548
0.0372882 -0.199106 0.668258
0.0404303 -0.199123 0.668193
0.0434938 -0.198778 0.666903
0.0465852 -0.198599 0.666159
0.0502576 -0.200763 0.673264
0.0541571 -0.203524 0.682354
0.0587342 -0.20838 0.698452
0.0618811 -0.207916 0.696702
0.0654094 -0.208716 0.699173
0.0691213 -0.209998 0.703242
0.0721348 -0.209137 0.700124
0.0749611 -0.207833 0.69551
0.0775504 -0.206008 0.689145
0.0822409 -0.209687 0.701176
0.0861692 -0.211214 0.705987
0.0903927 -0.213323 0.712726
0.0949953 -0.216144 0.72182
0.0990834 -0.21764 0.726465
0.103285 -0.219276 0.731558
0.109274 -0.224478 0.74852
0.112301 -0.223461 0.744716
0.115355 -0.222556 0.741274
0.118375 -0.221641 0.737784
0 0 0
0.115215 -0.2037 0.677194
0.118532 -0.203882 0.677338
0.122082 -0.204445 0.678729
0.125185 -0.204249 0.677579
0.128341 -0.204148 0.676724
0.131388 -0.203883 0.675309
0.13241 -0.200562 0.663761
0 0 0
0.141083 -0.20396 0.673828
0.144524 -0.204279 0.674262
0.147853 -0.204429 0.674114
0 0 0
0 0 0
0.161194 -0.209196 0.687723
0 0 0
0.166324 -0.207369 0.680208
0 0 0
0.171704 -0.20598 0.67406
0.176033 -0.207254 0.677396
0.177813 -0.205535 0.670924
0.181876 -0.206469 0.673095
0.180672 -0.201496 0.656002
0.183748 -0.201387 0.654743
0.188485 -0.20307 0.659285
0.191161 -0.202513 0.656525
0 0 0
0.195291 -0.200202 0.647092
0.199207 -0.200968 0.648564
0.202985 -0.201574 0.649495
0.205791 -0.201211 0.647284
0.208697 -0.200955 0.645406
0.211232 -0.200355 0.642413
0.213536 -0.199556 0.638779
0.216176 -0.19909 0.636207
0.218346 -0.198212 0.632316
0.220041 -0.196932 0.627151
0.221619 -0.195585 0.621785
0.225669 -0.196427 0.62338
0.228746 -0.19641 0.622251
0.233919 -0.198169 0.626747
0.235974 -0.197276 0.622859
0.236264 -0.194949 0.614477
0.239331 -0.194944 0.613447
0.241904 -0.194542 0.611193
0.245726 -0.195142 0.612115
0.24856 -0.194951 0.610589
0.250979 -0.194444 0.608114
0.253736 -0.194209 0.606533
0.256675 -0.194116 0.605446
0.260193 -0.194458 0.605767
0.263268 -0.194465 0.605099
0.266084 -0.194283 0.603902
0.268546 -0.19385 0.601992
0.27602 -0.197003 0.611281
0.277654 -0.195965 0.60763
0.278816 -0.194619 0.603106
0.279239 -0.192793 0.597174
0.283664 -0.19374 0.599911
0.287117 -0.194009 0.600631
0.293339 -0.196125 0.607144
0.295329 -0.195395 0.604934
0.292888 -0.19178 0.593869
0.294803 -0.191062 0.591853
0.29772 -0.191001 0.59195
0.298636 -0.189671 0.588192
0.30662 -0.192811 0.598378
0.306531 -0.190863 0.592854
0.312854 -0.192906 0.599805
0.308125 -0.188162 0.585714
0.306576 -0.185431 0.577934
0.307625 -0.184308 0.575219
0.314056 -0.186401 0.58261
0.320947 -0.188725 0.590811
0.320859 -0.186941 0.586215
0.317924 -0.183544 0.576597
0.311811 -0.178392 0.561469
0.309733 -0.175619 0.553837
0.312353 -0.175536 0.554719
0 0 0
0 0 0
0 0 0
0 0 0
0 0 0
0 0 0
0 0 0
-0.479305 -0.290206 0.916435
-0.480223 -0.293609 0.926286
-0.477493 -0.294827 0.929353
-0.481144 -0.300049 0.945146
-0.479171 -0.301833 0.950225
-0.474225 -0.301762 0.949589
-0.470206 -0.302286 0.950953
-0.458929 -0.298105 0.937654
0 0 0
-0.406593 -0.269721 0.848457
0 0 0
-0.382075 -0.25896 0.815126
-0.373039 -0.25561 0.804999
-0.369153 -0.255754 0.805972
-0.363922 -0.254959 0.804083
-0.359043 -0.254396 0.803016
-0.353672 -0.253467 0.80088
-0.349736 -0.253556 0.802044
-0.345687 -0.253565 0.803033
-0.341472 -0.253451 0.803704
-0.337781 -0.253727 0.805682
-0.33523 -0.254878 0.810503
-0.328446 -0.252798 0.805103
-0.326615 -0.254527 0.811877
-0.322061 -0.25415 0.811985
-0.318296 -0.254394 0.814109
-0.31343 -0.253753 0.813431
-0.310056 -0.25432 0.816645
-0.305181 -0.253653 0.815917
-0.302875 -0.255133 0.82211
-0.299096 -0.255395 0.824399
-0.295821 -0.256101 0.828126
-0.292004 -0.256351 0.830386
-0.288092 -0.256523 0.832389
-0.283724 -0.25629 0.833067
0 0 0
0 0 0
0 0 0
0 0 0
-0.241886 -0.235535 0.771991
-0.232215 -0.2297 0.754055
-0.225335 -0.226483 0.744643
-0.221178 -0.225942 0.743991
-0.216095 -0.224421 0.740079
-0.211715 -0.223592 0.738408
-0.207218 -0.222608 0.736196
-0.203786 -0.222754 0.73769
-0.19893 -0.221321 0.733923
-0.194837 -0.220699 0.732812
-0.189466 -0.218581 0.726699
-0.18543 -0.217952 0.725495
-0.178946 -0.214367 0.714409
-0.174459 -0.21308 0.71094
-0.170141 -0.211952 0.707967
-0.166405 -0.211517 0.70728
-0.1628 -0.211236 0.707078
-0.159388 -0.211198 0.707667
-0.155951 -0.211125 0.708114
-0.151976 -0.210302 0.706023
-0.148264 -0.209817 0.705034
-0.144805 -0.209674 0.705175
-0.140948 -0.208934 0.703283
-0.137182 -0.208297 0.701709
-0.133643 -0.207982 0.701199
-0.130102 -0.207647 0.700601
-0.126723 -0.207559 0.700815
-0.123394 -0.207552 0.70128
-0.120193 -0.207764 0.702468
-0.116589 -0.207273 0.701261
-0.11302 -0.206817 0.700152
-0.109442 -0.206317 0.698871
-0.105796 -0.205653 0.697018
-0.102351 -0.205349 0.696366
-0.0990168 -0.205255 0.696411
-0.0957405 -0.205279 0.696837
-0.0919578 -0.20418 0.693436
-0.0885632 -0.203894 0.692777
-0.0852385 -0.203752 0.692595
-0.0819771 -0.203757 0.692895
-0.0787919 -0.20396 0.693854
-0.0751578 -0.202968 0.690734
-0.0719965 -0.20322 0.691835
-0.0687278 -0.20318 0.691926
-0.065512 -0.203299 0.692548
-0.0619615 -0.202337 0.689476
-0.0586582 -0.202122 0.688932
-0.0553986 -0.20204 0.688833
-0.0522069 -0.202211 0.689585
-0.0489649 -0.202198 0.689695
-0.0456125 -0.201694 0.68812
-0.0423261 -0.201427 0.687346
-0.0390609 -0.201226 0.686781
-0.0357078 -0.200495 0.684398
-0.0324958 -0.20049 0.684484
-0.0292727 -0.200408 0.684295
-0.025965 -0.199655 0.681807
-0.0228039 -0.199977 0.682977
-0.0195763 -0.199725 0.682179
-0.0163329 -0.199181 0.680374
-0.0131345 -0.199055 0.679988
-0.00994879 -0.199105 0.680191
-0.0067542 -0.198938 0.679646
-0.00356615 -0.198839 0.67932
-0.000381298 -0.19874 0.678988
0.00280203 -0.198757 0.679043
0.00597637 -0.198458 0.678008
0.00915893 -0.198544 0.678282
0.0123142 -0.198147 0.676893
0.0154445 -0.197593 0.674961
0.0186165 -0.197671 0.675176
0.0217885 -0.197726 0.675305
0.0249028 -0.197309 0.673813
0.0280441 -0.197176 0.673281
0.0311963 -0.19714 0.673068
0.0341832 -0.196161 0.669629
0.0373234 -0.196153 0.669493
0.0404692 -0.196173 0.669444
0.0435377 -0.195842 0.668189
0.0466143 -0.19559 0.66719
0.050268 -0.197639 0.674029
0.0559584 -0.206978 0.705712
0.0605197 -0.21133 0.720365
0.0646772 -0.213886 0.728877
0.0684655 -0.215024 0.732545
0.071786 -0.214656 0.731063
0.074489 -0.212558 0.723684
0.0775257 -0.211555 0.720019
0.0796312 -0.208201 0.708344
0.082242 -0.206384 0.701895
0.0862335 -0.208039 0.707236
0.0901638 -0.209429 0.711658
0.0948287 -0.212364 0.721309
0.0992304 -0.214527 0.728314
0.103379 -0.216016 0.733009
0.107608 -0.217571 0.737906
0.111746 -0.218851 0.74185
0.115362 -0.219061 0.742143
0.11852 -0.218414 0.739518
0.119344 -0.213628 0.722871
0.116286 -0.202353 0.68428
0.119039 -0.201526 0.681033
0.122664 -0.202182 0.682776
0.12575 -0.201937 0.681455
0.128473 -0.201137 0.678247
0.132543 -0.202433 0.682087
0.133704 -0.19933 0.671089
0 0 0
0.140449 -0.199841 0.671659
0.141946 -0.197472 0.663097
0.14507 -0.197419 0.662296
0 0 0
0 0 0
0.158852 -0.202907 0.678661
0.154501 -0.193392 0.646144
0.15731 -0.193038 0.644246
0.160296 -0.192911 0.643086
0.162804 -0.192224 0.640039
0 0 0
0 0 0
0 0 0
0 0 0
0 0 0
0 0 0
0 0 0
0 0 0
0 0 0
0 0 0
0 0 0
0 0 0
0.200745 -0.190251 0.621789
0.2044 -0.190819 0.622613
0.207315 -0.190689 0.621143
0.209473 -0.189876 0.617443
0.212532 -0.189892 0.616435
0.216342 -0.190569 0.617558
0.220124 -0.191203 0.618532
0.223547 -0.191512 0.618449
0.225593 -0.190649 0.614584
0.228625 -0.190631 0.613451
0.231666 -0.190621 0.612357
0.236855 -0.192356 0.616867
0.238647 -0.191322 0.612514
0.241965 -0.191523 0.612138
0.243763 -0.190531 0.607978
0.247622 -0.191154 0.609007
0.251005 -0.191399 0.60886
0.253198 -0.190742 0.605885
0.256697 -0.191072 0.606093
0.259436 -0.190836 0.604554
0.263442 -0.191527 0.606002
0.26709 -0.191944 0.60664
0.269737 -0.19164 0.605062
0.272616 -0.191507 0.60409
0.275358 -0.19128 0.602895
0.27644 -0.189919 0.598202
0.279776 -0.190119 0.598503
0.282404 -0.189838 0.59737
0.284371 -0.189125 0.594955
0.287851 -0.189421 0.595799
0.290403 -0.189108 0.594805
0.294941 -0.19008 0.597939
0.299157 -0.190827 0.600448
0.303644 -0.191731 0.603533
0.303999 -0.190033 0.598511
0.303147 -0.187622 0.591315
0.305013 -0.186924 0.589588
0.302507 -0.183586 0.579601
0.301343 -0.181119 0.57242
0.305602 -0.181928 0.575658
0.300831 -0.177397 0.562051
0.309915 -0.181043 0.57442
0.319357 -0.184829 0.58733
0.322864 -0.185143 0.589292
0.316841 -0.180036 0.574035
0.314566 -0.177131 0.565814
0.312742 -0.17453 0.558587
0.310454 -0.171718 0.550705
0 0 0
0 0 0
0 0 0
0 0 0
0 0 0
0 0 0
0 0 0
-0.477904 -0.284724 0.913212
-0.477902 -0.28751 0.921327
-0.475358 -0.288808 0.924782
-0.477903 -0.293254 0.938432
-0.476635 -0.295427 0.944923
-0.474498 -0.2971 0.949942
-0.466123 -0.294861 0.942584
0 0 0
0 0 0
0 0 0
-0.387141 -0.255418 0.816947
-0.378406 -0.252365 0.807569
-0.371957 -0.250787 0.803007
-0.366851 -0.250089 0.801361
-0.362658 -0.250005 0.801776
-0.355674 -0.247973 0.796031
-0.35267 -0.248701 0.79923
-0.348258 -0.248441 0.799338
-0.344337 -0.248529 0.800641
-0.340088 -0.24838 0.80125
-0.336217 -0.248508 0.802813
-0.332211 -0.248537 0.804116
-0.327878 -0.248319 0.804672
-0.323978 -0.248428 0.80633
-0.320661 -0.248992 0.809505
-0.316434 -0.248855 0.810435
-0.312077 -0.248612 0.811041
-0.307849 -0.248465 0.811981
-0.304255 -0.248833 0.814618
-0.300507 -0.249084 0.816885
-0.297073 -0.249605 0.820046
-0.293925 -0.250384 0.824063
-0.289904 -0.250431 0.82567
-0.286188 -0.250747 0.828159
-0.283157 -0.251681 0.832684
-0.279011 -0.251636 0.833964
-0.274409 -0.251172 0.833833
-0.269772 -0.250663 0.833525
0 0 0
0 0 0
-0.23025 -0.224109 0.748821
-0.224581 -0.22211 0.743283
-0.220247 -0.221387 0.741979
-0.215862 -0.220589 0.740391
-0.209582 -0.217794 0.732057
-0.204955 -0.21665 0.729228
-0.199058 -0.214101 0.721628
-0.195187 -0.213678 0.721155
-0.190138 -0.211927 0.716166
-0.186628 -0.211858 0.716823
-0.182544 -0.211123 0.715203
-0.178286 -0.210154 0.712756
-0.174308 -0.209486 0.711295
-0.170038 -0.208431 0.708492
-0.166412 -0.208138 0.708252
-0.162792 -0.207842 0.707972
-0.159309 -0.207712 0.708233
-0.155853 -0.207612 0.708572
-0.152138 -0.207155 0.707667
-0.148479 -0.206756 0.706936
-0.144901 -0.206452 0.706507
-0.140981 -0.205636 0.704298
-0.137432 -0.205334 0.70383
-0.133861 -0.204984 0.703169
-0.130424 -0.204826 0.703148
-0.126893 -0.20451 0.702562
-0.123705 -0.204742 0.703844
-0.120322 -0.204657 0.704011
-0.116912 -0.204519 0.703981
-0.113325 -0.204053 0.7028
-0.109513 -0.203143 0.700073
-0.106038 -0.202821 0.69935
-0.102546 -0.202445 0.698424
-0.0992397 -0.202422 0.698699
-0.095695 -0.201895 0.697216
-0.0925775 -0.202264 0.698812
-0.0886615 -0.200851 0.694236
-0.0853524 -0.200757 0.694202
-0.0821091 -0.200817 0.694685
-0.0787862 -0.200679 0.69447
-0.0755194 -0.200678 0.694717
-0.0722513 -0.200673 0.694937
-0.0693186 -0.201644 0.698523
-0.0666258 -0.203444 0.704971
-0.0635092 -0.20407 0.707343
0 0 0
0 0 0
0 0 0
0 0 0
0 0 0
0 0 0
0 0 0
0 0 0
0 0 0
0 0 0
0 0 0
0 0 0
0 0 0
-0.0165657 -0.198785 0.690649
-0.0133022 -0.198368 0.689244
-0.0100724 -0.198351 0.689218
-0.0068159 -0.19754 0.686424
-0.00357454 -0.196114 0.681482
-0.000382122 -0.195979 0.68102
0.00281085 -0.19619 0.681748
0.00599959 -0.196038 0.681207
0.00917205 -0.195644 0.679819
0.0123461 -0.195479 0.679214
0.0155036 -0.195172 0.678108
0.0186404 -0.194755 0.67661
0.0218221 -0.194858 0.676913
0.0249662 -0.194643 0.676098
0.0280974 -0.194387 0.675133
0.0311625 -0.193772 0.672912
0.0342098 -0.193169 0.670724
0.0373587 -0.193193 0.670704
0.0405331 -0.193336 0.671083
0.0436985 -0.193417 0.671242
0.0468618 -0.193479 0.671323
0.0511392 -0.197844 0.686319
0.0562103 -0.20458 0.709521
0.0609099 -0.209286 0.725664
0.0644963 -0.209871 0.7275
0.0682509 -0.210917 0.730921
0.0717769 -0.211191 0.731648
0.0748665 -0.210214 0.728033
0.077914 -0.209209 0.724311
0.0801722 -0.206258 0.713841
0.0824339 -0.203553 0.704214
0.0859819 -0.20411 0.705864
0.0903041 -0.206395 0.713472
0.094237 -0.207659 0.717528
0.0981025 -0.208691 0.720767
0.102356 -0.210452 0.726502
0.106927 -0.212732 0.734004
0.111125 -0.214148 0.738503
0.11473 -0.214371 0.738865
0.117752 -0.213524 0.735525
0 0 0
0 0 0
0 0 0
0 0 0
0 0 0
0 0 0
0 0 0
0 0 0
0 0 0
0 0 0
0 0 0
0 0 0
0 0 0
0.162957 -0.209094 0.712407
0 0 0
0.154231 -0.189963 0.645884
0.157419 -0.190079 0.645572
0.160619 -0.190204 0.64527
0.165102 -0.191816 0.649981
0.181557 -0.207018 0.700652
0 0 0
0 0 0
0 0 0
0 0 0
0 0 0
0.199208 -0.204385 0.68624
0 0 0
0 0 0
0.198665 -0.194103 0.648802
0.201751 -0.194033 0.647553
0.203913 -0.193089 0.643374
0.205868 -0.191981 0.638645
0.208392 -0.191429 0.635753
0.208181 -0.188418 0.624701
0.21145 -0.188598 0.624233
0.216245 -0.190116 0.628169
0.218328 -0.189239 0.624181
0.221661 -0.189455 0.623796
0.224945 -0.189624 0.623249
0.227742 -0.189383 0.621355
0.23112 -0.189625 0.621048
0.233087 -0.188718 0.61699
0.237542 -0.189824 0.619518
0.240562 -0.189769 0.618265
0.242845 -0.189141 0.61517
0.245894 -0.189118 0.614067
0.248623 -0.188853 0.612208
0.252372 -0.189359 0.61288
0.255715 -0.189553 0.612574
0.257963 -0.18894 0.609706
0.260764 -0.188741 0.608225
0.265562 -0.189975 0.611411
0.268162 -0.189627 0.609557
0.268879 -0.187971 0.603566
0.271655 -0.187775 0.602337
0.273386 -0.186869 0.5989
0.276738 -0.187079 0.599116
0.278349 -0.18612 0.595662
0.278922 -0.184495 0.590161
0.281637 -0.184307 0.589337
0.284263 -0.184064 0.588421
0.28981 -0.185699 0.593585
0.291177 -0.184649 0.590251
0.297759 -0.186894 0.597533
0.303208 -0.188389 0.602505
0.305116 -0.187677 0.6005
0.302393 -0.184158 0.589591
0.300157 -0.181002 0.579908
0.296725 -0.177193 0.568194
0.299681 -0.177236 0.568894
0.298884 -0.175079 0.5626
0.301399 -0.174884 0.562672
0.311663 -0.179148 0.577174
0.321134 -0.182881 0.590071
0.323378 -0.182468 0.589671
0.318556 -0.178111 0.576568
0.317686 -0.176023 0.570831
0.314758 -0.172842 0.561578
0.315299 -0.171605 0.558669
0 0 0
0 0 0
0 0 0
0 0 0
0 0 0
0 0 0
0 0 0
-0.480594 -0.281666 0.917851
-0.477534 -0.282613 0.920184
-0.473901 -0.283236 0.921585
-0.477745 -0.288386 0.937827
-0.47436 -0.289231 0.940195
-0.465806 -0.28691 0.932402
0 0 0
0 0 0
0 0 0
-0.381829 -0.24518 0.79707
-0.381021 -0.247289 0.804275
-0.377087 -0.247392 0.805069
-0.371033 -0.246092 0.801395
-0.366087 -0.245505 0.800144
-0.361288 -0.245006 0.79927
-0.355718 -0.243966 0.796717
-0.350516 -0.243158 0.794999
-0.34719 -0.243648 0.797601
-0.343196 -0.243674 0.798762
-0.339282 -0.243759 0.800183
-0.335293 -0.243791 0.801491
-0.331511 -0.243976 0.803355
-0.326084 -0.24294 0.801243
-0.323229 -0.24382 0.805485
-0.319507 -0.244058 0.807651
-0.31549 -0.244074 0.809109
-0.311384 -0.244022 0.810363
-0.306963 -0.243717 0.810792
-0.303168 -0.243909 0.812882
-0.299825 -0.244473 0.816225
-0.296317 -0.244917 0.819174
-0.292682 -0.245267 0.821807
-0.289101 -0.245673 0.824627
-0.285033 -0.24567 0.826067
-0.281496 -0.246131 0.829058
-0.278342 -0.246947 0.833231
-0.273725 -0.246468 0.833021
-0.26476 -0.242002 0.819283
0 0 0
-0.231446 -0.21815 0.740922
-0.22785 -0.218163 0.742126
-0.219385 -0.213439 0.727167
-0.214923 -0.212519 0.725114
-0.210582 -0.21169 0.723338
-0.205957 -0.210543 0.720439
-0.202048 -0.210101 0.719919
-0.198285 -0.209797 0.719846
-0.194353 -0.209302 0.719084
-0.190464 -0.208835 0.718391
-0.186123 -0.207846 0.715868
-0.182275 -0.20738 0.715116
-0.178292 -0.206741 0.713736
-0.174396 -0.206179 0.712593
-0.170178 -0.205207 0.710002
-0.166554 -0.204925 0.70977
-0.163022 -0.204748 0.709873
-0.159425 -0.20448 0.709637
-0.156028 -0.204462 0.710245
-0.152607 -0.204411 0.710714
-0.148648 -0.203621 0.70859
-0.145046 -0.203296 0.708055
-0.141572 -0.203137 0.70808
-0.137502 -0.202096 0.705002
-0.134399 -0.202458 0.706797
-0.130915 -0.20225 0.706585
-0.127494 -0.202133 0.706668
-0.12406 -0.201987 0.70663
-0.120637 -0.201852 0.706608
-0.11722 -0.20172 0.706582
-0.113403 -0.20087 0.704019
-0.10966 -0.200105 0.701733
-0.106175 -0.199778 0.700965
-0.102815 -0.199672 0.700957
-0.0993044 -0.199257 0.699845
-0.0956872 -0.198593 0.697839
-0.0922613 -0.198292 0.697096
-0.0888096 -0.197912 0.696057
-0.085498 -0.197826 0.69604
-0.082117 -0.197567 0.695398
-0.0800086 -0.200475 0.705893
0 0 0
-0.0776019 -0.212026 0.747071
-0.0741722 -0.212251 0.748096
-0.0709079 -0.212995 0.75094
-0.0673761 -0.212971 0.751064
-0.0634922 -0.21177 0.747024
-0.059947 -0.211625 0.746694
-0.0564577 -0.211671 0.747027
-0.0528891 -0.211406 0.746252
-0.0492609 -0.210849 0.744432
-0.0457229 -0.210622 0.743767
-0.0422231 -0.210549 0.743632
-0.0386898 -0.21028 0.742795
-0.0351586 -0.20997 0.741806
-0.031518 -0.208868 0.738003
-0.0279946 -0.208366 0.736313
-0.0244485 -0.207531 0.733435
-0.0209546 -0.206938 0.731401
-0.017429 -0.20574 0.72722
-0.0139143 -0.204119 0.72153
-0.0105478 -0.204332 0.722317
-0.00717102 -0.204449 0.722757
-0.00378818 -0.204452 0.722783
-0.000405373 -0.20452 0.723026
0.00298258 -0.204787 0.723969
0.00636849 -0.204705 0.723664
0.00973105 -0.204189 0.721821
0.0130627 -0.203458 0.719205
0.0162853 -0.201676 0.712867
0.0195476 -0.200908 0.710103
0.0227814 -0.200114 0.707236
0 0 0
0 0 0
0.0318445 -0.194789 0.688195
0.0350139 -0.194492 0.68705
0.038071 -0.193672 0.684052
0.0411808 -0.193228 0.682369
0.0439237 -0.191249 0.675263
0.0469069 -0.190513 0.672534
0.0513023 -0.195244 0.68909
0.0567374 -0.203137 0.716785
0.0606116 -0.204871 0.722731
0.0642582 -0.205693 0.725444
0.0678547 -0.20628 0.727314
0.0714074 -0.206684 0.728527
0.0748118 -0.206641 0.728153
0.0775167 -0.204754 0.721269
0.0795001 -0.2012 0.708504
0.0819904 -0.199162 0.701075
0.0852534 -0.199086 0.70054
0.0893098 -0.2008 0.706287
0.0934622 -0.202599 0.712312
0.0977091 -0.204471 0.718576
0.101733 -0.205767 0.722792
0.106649 -0.208724 0.732823
0.110316 -0.20913 0.733871
0.113764 -0.209106 0.733395
0.116894 -0.208519 0.730927
0.119335 -0.206769 0.724371
0 0 0
0 0 0
0 0 0
0 0 0
0 0 0
0 0 0
0.145829 -0.210441 0.73368
0.149434 -0.210615 0.733692
0 0 0
0.152907 -0.205906 0.716065
0 0 0
0 0 0
0.166634 -0.210331 0.729405
0 0 0
0 0 0
0 0 0
0 0 0
0 0 0
0.185329 -0.20788 0.716192
0.189494 -0.208678 0.718065
0.192535 -0.208232 0.71563
0.196057 -0.208314 0.714984
0.19769 -0.20642 0.707538
0.199424 -0.204694 0.70066
0.20174 -0.203613 0.695978
0.204135 -0.202646 0.69167
0 0 0
0.198657 -0.190936 0.649746
0.202577 -0.191656 0.651182
0.205445 -0.191373 0.649189
0.207674 -0.190513 0.645225
0.210337 -0.190071 0.642664
0.214341 -0.190836 0.644166
0.216131 -0.189635 0.639023
0.216795 -0.187496 0.63072
0.21972 -0.187345 0.629109
0.222218 -0.186839 0.626301
0.226248 -0.187617 0.62779
0.229855 -0.188028 0.628042
0.232395 -0.187568 0.625381
0.235844 -0.187843 0.625177
0.238607 -0.187571 0.623163
0.242238 -0.18798 0.62342
0.244623 -0.187424 0.620493
0.247102 -0.186954 0.617875
0.250303 -0.187034 0.617103
0.254428 -0.187795 0.618602
0.257678 -0.187899 0.617967
0.259949 -0.187295 0.615047
0.261822 -0.186422 0.611295
0.266097 -0.18726 0.613205
0.267049 -0.185766 0.607535
0.267026 -0.183637 0.599861
0.270701 -0.18407 0.600627
0.274278 -0.184427 0.601209
0.276428 -0.183828 0.598744
0.279222 -0.183664 0.597776
0.281435 -0.183127 0.59567
0.282698 -0.18199 0.591694
0.29142 -0.185627 0.603321
0.289709 -0.182613 0.593408
0.289267 -0.180452 0.586355
0.289786 -0.178928 0.581458
0.29689 -0.181461 0.589825
0.302142 -0.182822 0.594471
0.304907 -0.182666 0.594268
0.299723 -0.177798 0.578807
0.299637 -0.17602 0.573469
0.299869 -0.17446 0.56891
0.299045 -0.172322 0.562528
0.305785 -0.174542 0.570444
0.312883 -0.176922 0.578976
0.325127 -0.182142 0.596902
0.322977 -0.179275 0.588409
0.319971 -0.17599 0.578575
0.317974 -0.173315 0.570777
0.318191 -0.171882 0.567108
0.321585 -0.172177 0.569188
0 0 0
0 0 0
0 0 0
0 0 0
0 0 0
0 0 0
0 0 0
-0.482078 -0.277861 0.920232
-0.476462 -0.277313 0.917735
-0.47283 -0.27792 0.919187
-0.475137 -0.282066 0.932464
-0.474327 -0.284426 0.939962
0 0 0
0 0 0
0 0 0
-0.38783 -0.242338 0.800984
-0.383091 -0.24192 0.799913
-0.378751 -0.241748 0.799764
-0.372289 -0.240203 0.795177
-0.36966 -0.241125 0.798854
-0.364477 -0.240382 0.797117
-0.359715 -0.239903 0.796346
-0.355052 -0.23948 0.795846
-0.35073 -0.23928 0.796166
-0.345957 -0.238765 0.79551
-0.342394 -0.239082 0.797696
-0.33838 -0.239088 0.798907
-0.334272 -0.239027 0.799951
-0.329972 -0.238826 0.800574
-0.325659 -0.238609 0.801187
-0.321521 -0.238518 0.802254
-0.318838 -0.239517 0.807024
-0.31276 -0.237959 0.803198
-0.308918 -0.238083 0.80506
-0.306256 -0.239132 0.81007
-0.302424 -0.239284 0.812054
-0.298848 -0.239644 0.814751
-0.295607 -0.240288 0.818415
-0.291685 -0.240387 0.820224
-0.287562 -0.240322 0.821461
-0.284447 -0.241108 0.825602
-0.280333 -0.241059 0.826868
-0.277286 -0.241939 0.831312
-0.273004 -0.241752 0.832068
0 0 0
-0.231375 -0.211181 0.729236
-0.226806 -0.210239 0.727137
-0.222693 -0.209697 0.72639
-0.218673 -0.209227 0.725861
-0.214798 -0.208881 0.725736
-0.210791 -0.208395 0.725091
-0.205926 -0.207028 0.721349
-0.202408 -0.206993 0.722213
-0.197827 -0.20585 0.719178
-0.19421 -0.205687 0.719537
-0.190614 -0.205541 0.719927
-0.186377 -0.204686 0.717801
-0.182386 -0.204074 0.716497
-0.178545 -0.203609 0.715677
-0.174753 -0.203183 0.714968
-0.171151 -0.202965 0.714963
-0.167537 -0.202724 0.714849
-0.163684 -0.202178 0.713635
-0.159864 -0.20165 0.712453
-0.15631 -0.201443 0.712379
-0.152917 -0.201438 0.712997
-0.149312 -0.201146 0.712578
-0.145466 -0.20051 0.710914
-0.141815 -0.200118 0.710091
-0.138308 -0.199916 0.70992
-0.134793 -0.199691 0.709643
-0.131256 -0.199422 0.709188
-0.127738 -0.199169 0.708771
-0.124268 -0.198977 0.708552
-0.120921 -0.198979 0.709
-0.117526 -0.198899 0.709143
-0.113748 -0.198148 0.706871
-0.10978 -0.19701 0.703197
-0.106307 -0.196717 0.702522
-0.102898 -0.196526 0.702195
-0.0995828 -0.19651 0.702472
-0.0965835 -0.197136 0.705034
-0.0940519 -0.198796 0.711281
0 0 0
0 0 0
-0.0831974 -0.196854 0.705172
-0.0841345 -0.207325 0.742946
-0.0817414 -0.21014 0.753289
-0.0784717 -0.210855 0.756092
-0.0746235 -0.210009 0.753286
-0.0710485 -0.209886 0.75306
-0.0673748 -0.209443 0.751673
-0.0636712 -0.208853 0.749746
-0.0601109 -0.208692 0.749344
-0.0566936 -0.209038 0.750753
-0.053095 -0.208718 0.749756
-0.0493078 -0.207558 0.745732
-0.0457768 -0.207382 0.74523
-0.0423678 -0.207774 0.746763
-0.0388738 -0.207784 0.746908
-0.0351729 -0.20658 0.742679
-0.0315229 -0.205444 0.738684
-0.0279398 -0.204518 0.735434
-0.0244949 -0.204485 0.735385
-0.020927 -0.203246 0.73099
-0.0170397 -0.197816 0.71151
-0.0138479 -0.199783 0.718628
-0.0105565 -0.201115 0.72345
-0.00722856 -0.20268 0.729103
-0.00382986 -0.203281 0.731281
-0.000408074 -0.202476 0.728389
0.0029927 -0.202082 0.72697
0.0063934 -0.202105 0.727039
0.00977662 -0.201751 0.725745
0.0131356 -0.201209 0.723765
0.0165183 -0.201176 0.723608
0.0199082 -0.201229 0.723751
0.0232845 -0.201149 0.723404
0.0266915 -0.20132 0.723952
0.0299209 -0.200264 0.72008
0.0332659 -0.200117 0.719467
0.0365625 -0.199733 0.717992
0.0398219 -0.199227 0.71607
0.0430457 -0.198636 0.713832
0.0463142 -0.198322 0.712578
0.0496439 -0.198293 0.712343
0.0530923 -0.198713 0.713708
0.0569024 -0.200357 0.719454
0.0603452 -0.200596 0.720143
0.0638775 -0.201091 0.721742
0.0675287 -0.201892 0.724426
0.0709574 -0.201983 0.724548
0.0742603 -0.201724 0.723402
0.0764015 -0.198469 0.711508
0.0788481 -0.196248 0.703308
0.081474 -0.194633 0.697275
0.084806 -0.194765 0.697489
0.0884288 -0.19553 0.699953
0.0922575 -0.196679 0.703777
0.0969011 -0.199425 0.713297
0.102114 -0.203121 0.726188
0.105566 -0.203187 0.72608
0.109339 -0.203847 0.728073
0.113344 -0.204887 0.731409
0.116191 -0.203834 0.727253
0.118744 -0.202342 0.721518
0 0 0
0 0 0
0 0 0
0 0 0
0.138498 -0.206414 0.73366
0.142586 -0.207307 0.736297
0.147513 -0.20935 0.742986
0.151596 -0.210127 0.745157
0.153035 -0.207288 0.734485
0 0 0
0 0 0
0 0 0
0 0 0
0 0 0
0.160306 -0.191018 0.673045
0.163066 -0.190487 0.670467
0.166422 -0.19066 0.670343
0 0 0
0.18472 -0.203768 0.714786
0.190394 -0.2062 0.722447
0.195181 -0.207601 0.726453
0.197676 -0.206559 0.72188
0.199578 -0.204944 0.715292
0.201786 -0.203692 0.709958
0.203274 -0.201767 0.702267
0.204839 -0.199981 0.695055
0.207395 -0.199204 0.691337
0.208793 -0.197357 0.683896
0.206932 -0.192536 0.666159
0.208275 -0.190799 0.659106
0.210813 -0.190193 0.655952
0.213965 -0.19015 0.654724
0.217697 -0.190617 0.655232
0.220518 -0.190283 0.652971
0.22414 -0.190641 0.653066
0.225503 -0.189095 0.646632
0.220118 -0.182011 0.621304
0.228614 -0.186442 0.635291
0.230201 -0.185196 0.629907
0.232603 -0.184629 0.626843
0.236451 -0.18521 0.627677
0.239961 -0.185514 0.627574
0.243094 -0.185523 0.626477
0.24587 -0.185263 0.624485
0.247495 -0.184153 0.619657
0.249188 -0.18312 0.61512
0.254081 -0.184436 0.618497
0.257778 -0.184862 0.618914
0.259055 -0.183563 0.613597
0.261478 -0.183096 0.611114
0.264158 -0.182819 0.609314
0.267258 -0.182836 0.608545
0.267437 -0.180876 0.601265
0.27066 -0.180997 0.600967
0.271872 -0.179784 0.596313
0.2764 -0.180768 0.599013
0.280984 -0.181765 0.601828
0.290515 -0.185908 0.615119
0 0 0
0.286643 -0.179563 0.593545
0.277179 -0.171824 0.567802
0.285663 -0.175255 0.579059
0.290564 -0.176441 0.582979
0.293229 -0.176258 0.582461
0.301702 -0.179535 0.593462
0.305387 -0.179927 0.595012
0.306954 -0.179075 0.592535
0.307663 -0.177744 0.588549
0.303886 -0.173872 0.576216
0.295077 -0.167222 0.554722
0.296182 -0.166263 0.552153
0.297477 -0.165427 0.550057
0 0 0
0.323967 -0.17685 0.589706
0.322469 -0.17443 0.582563
0.31687 -0.169855 0.568249
0.316277 -0.168022 0.56313
0.32122 -0.169136 0.567946
0 0 0
0 0 0
0 0 0
0 0 0
0 0 0
0 0 0
0 0 0
-0.480355 -0.272209 0.916536
-0.476633 -0.272745 0.917726
-0.472116 -0.272832 0.917535
-0.473938 -0.27662 0.929918
-0.469663 -0.276891 0.930603
0 0 0
0 0 0
-0.395561 -0.240482 0.808361
-0.387781 -0.238231 0.801063
-0.382655 -0.23758 0.799255
-0.378408 -0.237466 0.799362
-0.373241 -0.236766 0.797601
-0.367946 -0.235968 0.795608
-0.363786 -0.235889 0.796132
-0.359144 -0.235493 0.795673
-0.355061 -0.235457 0.79652
-0.350195 -0.234896 0.795663
-0.345486 -0.234429 0.795194
-0.341314 -0.234318 0.795999
-0.337539 -0.234481 0.797792
-0.333489 -0.234455 0.798995
-0.329061 -0.234159 0.799322
-0.324554 -0.233799 0.799466
-0.32046 -0.233731 0.800639
-0.316029 -0.233412 0.800975
-0.312262 -0.233582 0.803009
-0.308463 -0.233733 0.804991
-0.304523 -0.233778 0.806622
-0.301522 -0.234557 0.810789
-0.297433 -0.234497 0.812064
-0.294301 -0.235201 0.815985
-0.290298 -0.235219 0.81752
-0.287346 -0.236101 0.822051
-0.283814 -0.236524 0.824978
-0.280846 -0.237437 0.829604
-0.276881 -0.237521 0.831317
-0.272453 -0.237205 0.831607
0 0 0
-0.230703 -0.207025 0.728171
-0.226623 -0.206535 0.727596
-0.222722 -0.206196 0.727524
-0.218469 -0.205514 0.72621
-0.215261 -0.20581 0.728322
-0.210403 -0.204511 0.72476
-0.206522 -0.204134 0.724432
-0.202342 -0.203444 0.722957
-0.19872 -0.2033 0.723393
-0.194411 -0.202435 0.721235
-0.190719 -0.202194 0.721266
-0.186902 -0.201809 0.720754
-0.183034 -0.201353 0.719959
-0.178814 -0.200485 0.717659
-0.174881 -0.199911 0.716379
-0.171192 -0.199599 0.71601
-0.167579 -0.199363 0.715889
-0.16384 -0.198966 0.715162
-0.160386 -0.198905 0.715614
-0.156658 -0.198494 0.714787
-0.153058 -0.19823 0.714462
-0.149639 -0.198196 0.714939
-0.145627 -0.197355 0.712484
-0.142273 -0.197387 0.713158
-0.138569 -0.196924 0.712019
-0.135002 -0.196637 0.711494
-0.131509 -0.196446 0.711295
-0.128099 -0.196371 0.711497
-0.124463 -0.195938 0.71038
-0.121028 -0.195805 0.710333
-0.117681 -0.195812 0.710774
-0.113693 -0.19472 0.707209
-0.110607 -0.195154 0.709162
-0.108093 -0.196656 0.714989
0 0 0
-0.106265 -0.206168 0.75029
-0.104186 -0.209076 0.761213
-0.100607 -0.209073 0.761526
-0.0965221 -0.207981 0.757852
-0.0921123 -0.206078 0.751206
0 0 0
-0.0857906 -0.207849 0.758204
-0.0821909 -0.207741 0.758058
-0.0785309 -0.207464 0.757281
-0.074844 -0.207086 0.756123
-0.0712183 -0.206848 0.755462
-0.0676932 -0.206892 0.755821
-0.0643017 -0.207373 0.757762
-0.060517 -0.206567 0.754991
-0.0568586 -0.20612 0.753516
-0.0532245 -0.205706 0.752155
-0.049385 -0.204385 0.747462
-0.0458096 -0.204038 0.746321
-0.0423089 -0.203995 0.746279
-0.0387356 -0.203562 0.7448
-0.0350833 -0.202587 0.741331
-0.0314349 -0.201423 0.737158
-0.0278575 -0.200484 0.733797
-0.0238119 -0.195438 0.715394
-0.0201275 -0.192192 0.703568
-0.0169146 -0.19306 0.706795
-0.0137558 -0.195116 0.714358
-0.0106321 -0.199148 0.729153
-0.0072538 -0.199966 0.732169
-0.00384033 -0.200408 0.733802
-0.000410379 -0.200194 0.733023
0.00300024 -0.199183 0.729319
0.0064026 -0.19899 0.728602
0.00981113 -0.199057 0.728825
0.0132072 -0.198901 0.728224
0.0166158 -0.198959 0.728401
0.019955 -0.198308 0.72597
0.0233221 -0.198083 0.725091
0.0266507 -0.19763 0.723369
0.0299765 -0.197261 0.721943
0.0332538 -0.196679 0.719732
0.0365923 -0.196532 0.719105
0.0398488 -0.196008 0.717084
0.0431 -0.195541 0.715266
0.0463709 -0.195223 0.713986
0.0497332 -0.195308 0.714165
0.0531594 -0.195617 0.715155
0.056505 -0.19561 0.714981
0.0600901 -0.196387 0.717659
0.0633729 -0.196146 0.716605
0.0667664 -0.196255 0.716819
0.0697119 -0.195099 0.712403
0.0728957 -0.194685 0.710688
0.0755837 -0.193042 0.704472
0.0779603 -0.190773 0.695969
0.0806842 -0.189503 0.6911
0.0846403 -0.191114 0.696721
0.0885888 -0.192588 0.701828
0.0925279 -0.193936 0.706461
0.0965733 -0.195407 0.711518
0 0 0
0 0 0
0 0 0
0 0 0
0.105566 -0.18208 0.661386
0.108357 -0.181535 0.65904
0.112023 -0.182446 0.661966
0.114952 -0.182141 0.660457
0.118318 -0.182525 0.661432
0 0 0
0.138804 -0.203388 0.736047
0.143346 -0.204906 0.74101
0.148565 -0.207295 0.749092
0.152374 -0.207652 0.749801
0.154897 -0.206279 0.744246
0 0 0
0 0 0
0 0 0
0 0 0
0 0 0
0.159176 -0.18648 0.669115
0.162767 -0.186939 0.670065
0.167177 -0.188303 0.674229
0 0 0
0.189212 -0.205212 0.733112
0.193389 -0.20592 0.734768
0.196448 -0.205434 0.732138
0.198309 -0.203734 0.725163
0.20017 -0.202093 0.718386
0.202663 -0.201135 0.714022
0.204819 -0.19988 0.708587
0.206543 -0.198251 0.701816
0.206416 -0.194928 0.689045
0.207758 -0.193075 0.681477
0.208895 -0.191093 0.673446
0.21024 -0.189359 0.666289
0.212458 -0.188452 0.662033
0.214451 -0.187375 0.657173
0.216712 -0.186561 0.653225
0.220111 -0.186736 0.652725
0.22422 -0.187501 0.654261
0.227681 -0.187709 0.653837
0.224603 -0.182595 0.634895
0.228869 -0.18351 0.636929
0.230204 -0.182082 0.630826
0.232415 -0.181376 0.627234
0.2362 -0.181901 0.6279
0.240533 -0.182828 0.629947
0.243793 -0.182926 0.629138
0.246653 -0.182726 0.627312
0.24741 -0.180993 0.620248
0.24878 -0.179745 0.614887
0.252094 -0.179914 0.614404
0.254013 -0.179097 0.610582
0.255643 -0.178097 0.606184
0.259888 -0.178922 0.608034
0.262716 -0.178762 0.606583
0.266465 -0.179226 0.607293
0.268135 -0.178297 0.603339
0.266838 -0.175438 0.592931
0.269305 -0.17509 0.591085
0.272934 -0.175497 0.591854
0.283091 -0.180047 0.606651
0.289806 -0.182333 0.613877
0 0 0
0.277201 -0.170727 0.574136
0.281312 -0.171452 0.57636
0.285845 -0.172416 0.579468
0.288017 -0.171951 0.577856
0.288687 -0.170608 0.573378
0.299705 -0.175346 0.589422
0.3053 -0.176849 0.594683
0.305166 -0.175036 0.588876
0.307354 -0.174578 0.587707
0.310637 -0.174744 0.588722
0 0 0
0.293265 -0.161856 0.546368
0.293966 -0.160724 0.543185
0.303456 -0.164375 0.556245
0.316642 -0.169942 0.575902
0.321957 -0.171222 0.581131
0.318073 -0.167631 0.569883
0.313774 -0.163888 0.558136
0.323784 -0.167618 0.571901
0 0 0
0 0 0
0 0 0
0 0 0
0 0 0
0 0 0
0 0 0
-0.475937 -0.26509 0.907749
-0.475288 -0.267321 0.914845
-0.472687 -0.268487 0.918424
-0.467193 -0.268017 0.916539
0 0 0
0 0 0
-0.403403 -0.238571 0.815821
-0.394094 -0.235491 0.805514
-0.38776 -0.234142 0.801241
-0.383096 -0.233783 0.800465
-0.377107 -0.2326 0.796973
-0.371703 -0.231755 0.79474
-0.365772 -0.23056 0.791397
-0.362615 -0.231107 0.794127
-0.357856 -0.230632 0.793438
-0.353694 -0.230537 0.79413
-0.349586 -0.230474 0.795015
-0.345086 -0.23015 0.79506
-0.340789 -0.229954 0.795613
-0.336684 -0.229885 0.796658
-0.332585 -0.229818 0.797759
-0.328246 -0.229582 0.798311
-0.324074 -0.229458 0.799287
-0.319454 -0.22901 0.799158
-0.314998 -0.22867 0.799424
-0.31118 -0.22879 0.801313
-0.307731 -0.229188 0.80419
-0.303979 -0.229368 0.80631
-0.300337 -0.229636 0.808747
-0.296894 -0.230066 0.811753
-0.293622 -0.230643 0.815274
-0.291178 -0.231894 0.821181
-0.28743 -0.232128 0.82348
-0.283657 -0.232348 0.825717
-0.280524 -0.233106 0.829849
-0.276287 -0.232956 0.83073
-0.269006 -0.230196 0.822264
0 0 0
-0.231421 -0.204116 0.731474
-0.226778 -0.20314 0.729119
-0.222961 -0.202884 0.729318
-0.219059 -0.202543 0.729178
-0.215439 -0.202455 0.729919
-0.210504 -0.201108 0.72609
-0.206494 -0.200613 0.7253
-0.202382 -0.200002 0.724054
-0.198595 -0.199696 0.723883
-0.195048 -0.199624 0.724532
-0.190961 -0.198987 0.723099
-0.187058 -0.198521 0.722257
-0.1833 -0.198195 0.721893
-0.179166 -0.197442 0.719945
-0.174977 -0.196598 0.717632
-0.171273 -0.196276 0.717193
-0.167637 -0.196019 0.716969
-0.164231 -0.196028 0.717688
-0.160644 -0.195816 0.717577
-0.157244 -0.195828 0.718259
-0.153395 -0.195268 0.71682
-0.149585 -0.194734 0.71545
-0.146088 -0.194592 0.715499
-0.142672 -0.194553 0.715903
-0.138923 -0.194048 0.71457
-0.135234 -0.193604 0.713436
-0.13171 -0.193378 0.713087
-0.128423 -0.193499 0.713996
-0.125307 -0.19389 0.715882
0 0 0
0 0 0
0 0 0
-0.119075 -0.206499 0.764147
-0.115651 -0.206805 0.765662
-0.112164 -0.207016 0.766808
-0.108617 -0.207125 0.76756
-0.104784 -0.206677 0.766232
-0.100782 -0.205853 0.763493
-0.0969376 -0.205302 0.761747
-0.0918797 -0.202039 0.749922
-0.0889349 -0.203349 0.755051
-0.0861358 -0.205115 0.761863
-0.08241 -0.20473 0.760677
-0.0786009 -0.204095 0.758545
-0.0749266 -0.203766 0.757538
-0.071317 -0.20359 0.757084
-0.0677803 -0.203613 0.757363
-0.0638451 -0.202377 0.752941
-0.0602224 -0.202044 0.751869
-0.0566964 -0.202014 0.751913
-0.0529579 -0.201174 0.748928
-0.0493514 -0.200751 0.747487
-0.045814 -0.200566 0.746922
-0.0422824 -0.200379 0.746337
-0.0386777 -0.199779 0.744208
-0.0349711 -0.198483 0.739472
-0.0312984 -0.197117 0.734464
-0.0270985 -0.191684 0.714294
-0.0235314 -0.189831 0.70745
-0.020228 -0.189847 0.707563
-0.0170609 -0.191397 0.713388
-0.0139453 -0.194419 0.724689
-0.0106849 -0.196712 0.733267
-0.00726458 -0.196836 0.73375
-0.00383353 -0.19663 0.732995
-0.000408863 -0.196041 0.730806
0.00299691 -0.195557 0.729
0.0063988 -0.195469 0.728659
0.00980409 -0.19551 0.728793
0.0132028 -0.195432 0.728473
0.0165463 -0.194736 0.725845
0.0199363 -0.194733 0.725786
0.0232988 -0.194499 0.724863
0.026642 -0.194185 0.723629
0.0299574 -0.193761 0.72198
0.0332732 -0.193426 0.720652
0.0365738 -0.193072 0.719244
0.0399136 -0.192967 0.718755
0.0432141 -0.192703 0.717667
0.0464195 -0.192084 0.715245
0.0497412 -0.191997 0.714795
0.0530612 -0.191914 0.714354
0.0563653 -0.191787 0.713737
0.0595796 -0.191386 0.712089
0.0630784 -0.191893 0.71381
0.0657076 -0.189837 0.705986
0.0688424 -0.189368 0.704057
0.0719846 -0.188962 0.702349
0.0746793 -0.187468 0.696589
0.0769738 -0.185136 0.687709
0.0802997 -0.185373 0.68836
0.0837796 -0.185933 0.690199
0.0884997 -0.189102 0.701703
0.0926695 -0.190909 0.708136
0.0945582 -0.188055 0.697264
0 0 0
0 0 0
0.0970525 -0.174853 0.647438
0.100762 -0.176014 0.651416
0.10416 -0.17658 0.653174
0.107187 -0.176501 0.652529
0.110126 -0.176287 0.651368
0.114328 -0.178051 0.657498
0 0 0
0 0 0
0.139068 -0.200288 0.738189
0.143288 -0.201317 0.741464
0.147841 -0.202755 0.746216
0.152846 -0.204731 0.75292
0.156154 -0.204395 0.751091
0 0 0
0 0 0
0 0 0
0 0 0
0 0 0
0 0 0
0.177187 -0.200018 0.730301
0.183207 -0.202828 0.739775
0.186483 -0.202549 0.737952
0.189418 -0.201919 0.734823
0.192898 -0.201882 0.733831
0.196265 -0.20173 0.732394
0.196623 -0.198545 0.719932
0.199378 -0.197849 0.716485
0.20013 -0.195222 0.706035
0.20428 -0.195943 0.707675
0.204022 -0.19248 0.694196
0.205304 -0.19056 0.686279
0.206602 -0.188715 0.678626
0.208024 -0.18704 0.67158
0.209936 -0.18585 0.666268
0.210925 -0.183891 0.658193
0.211968 -0.182037 0.650495
0.213879 -0.180972 0.645613
0.217567 -0.18142 0.646114
0.222283 -0.1827 0.649548
0.225045 -0.18236 0.647202
0.224748 -0.179586 0.636221
0.227121 -0.178992 0.632975
0.230701 -0.179352 0.633093
0.231164 -0.177312 0.624744
0.23448 -0.177486 0.624203
0.238788 -0.178395 0.626243
0.242979 -0.179196 0.627892
0.245678 -0.178889 0.625666
0.246579 -0.177298 0.61897
0.247453 -0.175727 0.612382
0.248411 -0.174252 0.606169
0.250996 -0.173941 0.60404
0.252588 -0.172958 0.599615
0.248683 -0.168278 0.582442
0.259133 -0.173307 0.598913
0.261444 -0.17284 0.596412
0.261317 -0.17079 0.588511
0.263849 -0.170505 0.586758
0.264479 -0.16901 0.580912
0.269852 -0.170546 0.585546
0.272277 -0.170206 0.583801
0 0 0
0.272628 -0.166795 0.571189
0.277131 -0.167763 0.57416
0.283332 -0.169728 0.580619
0.285866 -0.169478 0.579581
0.285496 -0.167529 0.572818
0.279428 -0.162311 0.55496
0 0 0
0.30251 -0.172235 0.589119
