ply
format ascii 1.0
comment Generated by sampleExportPLY
element vertex 1675
property float x
property float y
property float z
element face 0
property list uchar int vertex_index
end_header
0.259914 -0.0902964 0.487112
0.263652 -0.0907297 0.489217
0.265659 -0.090565 0.488181
0.264508 -0.0893368 0.481499
0.26496 -0.0886677 0.477916
0.268296 -0.0889668 0.479637
0.272452 -0.0895303 0.482868
0.270004 -0.0879327 0.474523
0.272886 -0.088084 0.475691
0.275226 -0.0880594 0.475989
0.275187 -0.0872804 0.47228
0.27681 -0.0870374 0.471539
0.278174 -0.0867181 0.470451
0.28173 -0.0870814 0.473135
0.283455 -0.0868778 0.472806
0.284361 -0.0864283 0.471195
-0.415338 -0.142728 0.792923
-0.410399 -0.142411 0.791953
-0.404304 -0.141684 0.788813
-0.39481 -0.139738 0.778989
-0.390028 -0.139439 0.77843
-0.384693 -0.138933 0.776812
-0.379003 -0.138287 0.77449
-0.371923 -0.137116 0.769287
-0.365192 -0.13605 0.764723
-0.359349 -0.135295 0.761952
-0.352477 -0.134133 0.756917
-0.347832 -0.133803 0.756598
-0.343192 -0.133467 0.756276
-0.337902 -0.132867 0.754479
-0.331097 -0.131652 0.749179
-0.324245 -0.130391 0.743599
-0.319221 -0.129844 0.742075
-0.31472 -0.1295 0.741697
-0.309807 -0.128976 0.740272
-0.303589 -0.12789 0.73559
-0.298496 -0.127257 0.733481
-0.293738 -0.126754 0.732083
-0.287371 -0.125535 0.726512
-0.282982 -0.12516 0.725785
-0.277092 -0.124104 0.721062
-0.272243 -0.123493 0.718879
-0.267336 -0.12284 0.716406
-0.262649 -0.122272 0.714387
-0.255351 -0.120457 0.705023
-0.25098 -0.119992 0.703509
-0.241569 -0.117072 0.687534
-0.235956 -0.115938 0.681973
-0.233536 -0.116362 0.685542
-0.23045 -0.116462 0.68717
-0.227361 -0.116563 0.688778
-0.22461 -0.116843 0.69141
-0.219224 -0.115741 0.685824
-0.216008 -0.115767 0.686889
-0.210866 -0.114747 0.681704
-0.207258 -0.114543 0.681324
-0.20319 -0.114073 0.679333
-0.199653 -0.113892 0.679024
-0.196888 -0.114153 0.681322
-0.193139 -0.113842 0.680179
-0.188646 -0.113074 0.676274
-0.185348 -0.113009 0.676536
-0.181563 -0.112639 0.674948
-0.179106 -0.113095 0.67828
-0.175787 -0.113013 0.678362
-0.171146 -0.112062 0.673201
-0.167913 -0.112015 0.673441
-0.163239 -0.110986 0.667752
-0.159713 -0.110713 0.666578
-0.156408 -0.110586 0.66626
-0.153737 -0.11091 0.668644
-0.150609 -0.110911 0.669063
-0.146797 -0.110398 0.666355
-0.14338 -0.110167 0.665324
-0.139884 -0.109862 0.663837
-0.135914 -0.109164 0.659944
-0.132641 -0.109006 0.659299
-0.129537 -0.108982 0.659453
-0.125351 -0.108025 0.653941
-0.122064 -0.107814 0.652925
-0.119286 -0.108054 0.654626
-0.116171 -0.107993 0.654488
-0.112831 -0.107713 0.653013
-0.109291 -0.107222 0.650243
-0.106655 -0.107616 0.652825
-0.103146 -0.107126 0.650034
-0.100344 -0.107362 0.651639
-0.0969974 -0.107013 0.649677
-0.0933878 -0.106341 0.645749
-0.0902039 -0.106126 0.644581
-0.0866284 -0.105419 0.640418
-0.083476 -0.105196 0.639179
-0.0804031 -0.105059 0.638463
-0.0774433 -0.105066 0.638607
-0.0748241 -0.105554 0.641668
-0.0714417 -0.104961 0.638152
-0.0684431 -0.104904 0.637893
-0.0642931 -0.102999 0.62638
-0.0616769 -0.103486 0.629412
-0.0579377 -0.102044 0.620703
-0.055554 -0.102963 0.626352
-0.0524236 -0.102523 0.623731
-0.0497427 -0.102963 0.626454
-0.0469096 -0.103122 0.627467
-0.0440235 -0.103178 0.62785
-0.0408734 -0.102579 0.624245
-0.0377138 -0.101864 0.619925
-0.0341132 -0.0997415 0.607036
-0.0309708 -0.0986968 0.600704
-0.02823 -0.0988525 0.601674
-0.0254022 -0.0987039 0.60079
-0.0226553 -0.098872 0.601831
-0.019921 -0.0991498 0.603538
-0.0170525 -0.0987415 0.601065
-0.0142399 -0.0985605 0.599974
-0.0114472 -0.0984626 0.599387
-0.00861466 -0.09785 0.595665
-0.00584994 -0.0977928 0.595322
-0.00308072 -0.0974907 0.593486
-0.000327928 -0.0970082 0.590549
0.00240319 -0.0967496 0.588975
0.00510647 -0.0962415 0.585878
0.00773748 -0.095197 0.579516
0.0103991 -0.0949705 0.578131
0.0130518 -0.0947718 0.576913
0.0157685 -0.0950268 0.578455
0.0185466 -0.0955235 0.581467
0.0214243 -0.0963424 0.586437
0.024233 -0.0967012 0.588604
0.0271034 -0.0972089 0.591675
0.0299405 -0.0975147 0.593514
0.0326554 -0.0974043 0.592818
0.0354051 -0.0974073 0.592808
0.0383337 -0.0978661 0.59557
0.0409134 -0.0974327 0.592898
0.0435501 -0.0971808 0.591328
0.0460473 -0.0966662 0.588155
0.0490032 -0.0971181 0.59086
0.0509663 -0.0956587 0.581932
0.0535684 -0.0954851 0.580823
0.0557104 -0.0945474 0.575062
0.0580376 -0.0939952 0.571642
0.0601525 -0.0931626 0.566512
0.0627402 -0.0931012 0.566066
0.065 -0.0925779 0.562807
0.0676241 -0.0925938 0.56282
0.0701399 -0.0924657 0.561952
0.0725872 -0.0922597 0.560603
0.0750572 -0.0920958 0.559505
0.0776173 -0.0920498 0.559114
0.0800513 -0.0918621 0.557856
0.0823371 -0.0915214 0.55566
0.084689 -0.0912726 0.554015
0.0872338 -0.0912403 0.553676
0.0896635 -0.0910929 0.552629
0.092099 -0.0909595 0.551658
0.0947883 -0.0910772 0.552199
0.0973323 -0.0910526 0.551867
0.0997824 -0.0909439 0.551014
0.102094 -0.0907174 0.549436
0.104195 -0.0903192 0.546808
0.107373 -0.090852 0.549804
0.109317 -0.0903394 0.54646
0.111853 -0.0903292 0.546143
0.114342 -0.0902812 0.545585
0.116711 -0.0901432 0.544468
0.119043 -0.0899831 0.543204
0.121269 -0.0897514 0.541494
0.123993 -0.0898901 0.542003
0.126764 -0.0900569 0.542664
0.128615 -0.0895757 0.539405
0.130799 -0.0893412 0.537616
0.133205 -0.0892639 0.536757
0.13558 -0.0891692 0.535776
0.138198 -0.0892349 0.535741
0.141021 -0.0894279 0.536449
0.143488 -0.0893925 0.535767
0.145971 -0.0893688 0.535134
0.147911 -0.0890183 0.532526
0.150385 -0.0889959 0.531861
0.152247 -0.0886177 0.529051
0.154767 -0.0886287 0.528545
0.157763 -0.0889077 0.529613
0.159871 -0.0886853 0.52767
0.162159 -0.088568 0.526332
0.164415 -0.0884372 0.524892
0.167429 -0.0887119 0.525834
0.170461 -0.0889876 0.526753
0.171946 -0.0884598 0.522893
0.173795 -0.0881316 0.520195
0.176522 -0.0882512 0.520119
0.179461 -0.0884727 0.520614
0.18269 -0.0888288 0.521872
0.184487 -0.0884883 0.519013
0.186978 -0.0884854 0.518113
0.188727 -0.088136 0.515164
0.192696 -0.0888188 0.518221
0.19434 -0.0884268 0.514982
0.195894 -0.0880035 0.511548
0.199206 -0.0883712 0.512692
0.201665 -0.0883561 0.511592
0.203153 -0.087921 0.508048
0.206012 -0.0880826 0.50794
0.207254 -0.0875569 0.503859
0.210018 -0.0876797 0.503503
0.21287 -0.0878354 0.503325
0.218659 -0.0891856 0.509968
0.219452 -0.0884904 0.504906
0.221465 -0.0882975 0.502723
0.223322 -0.0880471 0.500225
0.227149 -0.0885705 0.50213
0.229804 -0.0886306 0.501418
0.232414 -0.0886721 0.500622
0.234176 -0.0883925 0.498042
0.235973 -0.0881321 0.495608
0.238268 -0.0880611 0.494282
0.240725 -0.0880508 0.493341
0.242708 -0.0878691 0.491491
0.244192 -0.0875126 0.488724
0.245436 -0.0870777 0.485586
0.247763 -0.087032 0.484688
0.250187 -0.0870208 0.484052
0.252652 -0.087024 0.48357
0.254864 -0.0869409 0.482686
0.257928 -0.0871471 0.483488
0.262981 -0.0880152 0.488042
0.263433 -0.0873416 0.484131
0.261536 -0.0859088 0.4761
0.261737 -0.0851853 0.472087
0.26406 -0.0851591 0.472021
0.266456 -0.0851567 0.47217
0.26744 -0.0847074 0.469922
0.269755 -0.0846837 0.470115
0.272385 -0.0847585 0.470932
0.273398 -0.084333 0.469045
0.272495 -0.0833291 0.464005
0.276027 -0.0836872 0.466617
0.277407 -0.0833919 0.465653
0.279151 -0.0832103 0.465387
0.280951 -0.0830483 0.46529
-0.407722 -0.136156 0.778631
-0.406316 -0.137016 0.78437
-0.398189 -0.135603 0.777217
-0.39319 -0.135238 0.77617
-0.385879 -0.134062 0.770562
-0.382808 -0.134351 0.773456
-0.375514 -0.133148 0.767841
-0.368164 -0.1319 0.762019
-0.361777 -0.130974 0.758104
-0.356078 -0.130281 0.755573
-0.350923 -0.129774 0.754157
-0.345562 -0.129178 0.752255
-0.340588 -0.128716 0.751148
-0.332533 -0.127066 0.743106
-0.325407 -0.125738 0.736926
-0.322343 -0.125968 0.739868
-0.318121 -0.125745 0.740157
-0.312163 -0.124823 0.736309
-0.305301 -0.123513 0.730141
-0.300319 -0.122942 0.728301
-0.292032 -0.120988 0.718222
-0.287555 -0.120584 0.717294
-0.28198 -0.119704 0.7135
-0.278509 -0.119706 0.714926
-0.27234 -0.118534 0.709298
-0.266842 -0.117628 0.705211
-0.262522 -0.117224 0.70409
-0.257489 -0.116487 0.700924
-0.252085 -0.11556 0.696566
-0.242649 -0.112736 0.680698
-0.236232 -0.111255 0.672869
-0.235378 -0.11239 0.680823
-0.232131 -0.112398 0.681929
-0.2273 -0.111628 0.678278
-0.224481 -0.111839 0.680545
-0.221129 -0.111786 0.68118
-0.217757 -0.111722 0.681709
-0.211722 -0.110268 0.67372
-0.20921 -0.110633 0.676801
-0.206352 -0.110824 0.678788
-0.199166 -0.108659 0.666304
-0.196894 -0.109149 0.67006
-0.192318 -0.108356 0.665911
-0.188596 -0.108027 0.664572
-0.185802 -0.108226 0.666462
-0.183619 -0.108795 0.670603
-0.179734 -0.108357 0.668513
-0.17528 -0.107556 0.664146
-0.172156 -0.107555 0.664695
-0.168954 -0.107505 0.664916
-0.164745 -0.1068 0.661062
-0.162207 -0.107172 0.663849
-0.158517 -0.106783 0.661898
-0.155151 -0.106601 0.661206
-0.151634 -0.106306 0.65979
-0.148337 -0.106155 0.659249
-0.145326 -0.106207 0.65995
-0.141109 -0.105362 0.655049
-0.137893 -0.105243 0.654645
-0.134891 -0.105284 0.655223
-0.131665 -0.10515 0.654691
-0.127239 -0.104028 0.647985
-0.124628 -0.104371 0.650392
-0.121805 -0.10455 0.651759
-0.118502 -0.104315 0.650532
-0.114845 -0.103747 0.647218
-0.111503 -0.103442 0.645527
-0.108348 -0.103298 0.644821
-0.104684 -0.102647 0.640944
-0.102052 -0.102998 0.643312
-0.0989215 -0.102853 0.64257
-0.0953092 -0.102183 0.638532
-0.0924771 -0.102333 0.639609
-0.0887881 -0.101512 0.634614
-0.0857046 -0.101352 0.633734
-0.082896 -0.101517 0.634878
-0.0798191 -0.101353 0.63396
-0.0766359 -0.101037 0.632079
-0.0730966 -0.100207 0.626978
-0.0702249 -0.100261 0.627402
-0.0670419 -0.0998569 0.624948
-0.0639374 -0.0995382 0.623024
-0.0603085 -0.0983343 0.615552
-0.0575985 -0.0985834 0.61717
-0.0549887 -0.0990391 0.620078
-0.0522455 -0.0992914 0.621707
-0.0493379 -0.0992427 0.621447
-0.0466674 -0.0996943 0.624317
-0.04353 -0.0991422 0.620897
-0.0405624 -0.0989262 0.619578
-0.0373471 -0.0980271 0.613977
-0.0337545 -0.0959074 0.600727
-0.0304481 -0.094293 0.590638
-0.0276836 -0.0942036 0.590099
-0.0250912 -0.0947443 0.593504
-0.0221932 -0.094122 0.589622
-0.0193498 -0.093589 0.586296
-0.0165488 -0.0931209 0.583376
-0.0138293 -0.0930172 0.582735
-0.0111363 -0.0930859 0.583174
-0.00839489 -0.0926629 0.580529
-0.00569106 -0.092452 0.579213
-0.00301544 -0.0927322 0.580971
-0.000319505 -0.0918494 0.575441
0.00234153 -0.0916073 0.573923
0.00500734 -0.09171 0.574565
0.00772683 -0.0923832 0.578778
0.0105201 -0.0933646 0.584921
0.0132974 -0.0938302 0.587831
0.0163292 -0.0956285 0.599087
0.0190644 -0.0954193 0.597765
0.0217682 -0.0951265 0.595918
0.0244359 -0.094759 0.5936
0.0270956 -0.0944385 0.591575
0.0298023 -0.0943254 0.590846
0.0325873 -0.0944582 0.591655
0.0353348 -0.0944704 0.591707
0.0378726 -0.0939604 0.588484
0.0405776 -0.0939061 0.588113
0.043059 -0.0933735 0.584743
0.0454223 -0.0926633 0.580257
0.0481491 -0.0927324 0.580648
0.0507308 -0.0925296 0.579334
0.0526973 -0.0912816 0.571471
0.0554018 -0.0913704 0.571973
0.0574224 -0.0903745 0.565681
0.0597197 -0.0898822 0.562537
0.0623294 -0.0898816 0.562466
0.0647137 -0.0895691 0.560437
0.0670807 -0.0892578 0.558411
0.0697205 -0.0893191 0.558709
0.071974 -0.0888987 0.555989
0.0748905 -0.0892981 0.558388
0.0774284 -0.0892345 0.557884
0.0799107 -0.089113 0.557011
0.0823223 -0.0889226 0.5557
0.0845371 -0.0885378 0.553166
0.0869667 -0.0883941 0.55213
0.0894044 -0.0882665 0.551187
0.0918767 -0.0881793 0.550486
0.0945321 -0.0882677 0.550871
0.0967126 -0.0879198 0.548523
0.0991951 -0.0878573 0.547946
0.101697 -0.0878148 0.547483
0.104281 -0.0878433 0.54745
0.106347 -0.0874442 0.544741
0.108836 -0.0874044 0.544259
0.111331 -0.08737 0.543797
0.113957 -0.0874386 0.543962
0.115598 -0.0867645 0.539495
0.11821 -0.0868321 0.539627
0.121094 -0.0870931 0.540945
0.123849 -0.087252 0.541611
0.125958 -0.0869587 0.539454
0.127974 -0.0866143 0.536967
0.13039 -0.086548 0.536188
0.132718 -0.0864275 0.535056
0.135105 -0.0863489 0.534167
0.137248 -0.0861204 0.532333
0.139981 -0.0862637 0.532778
0.141723 -0.0858016 0.529467
0.144058 -0.0857085 0.528416
0.147325 -0.0861635 0.530721
0.149217 -0.0858127 0.528042
0.152409 -0.0862088 0.529936
0.154722 -0.0861029 0.52872
0.156504 -0.0857089 0.525717
0.159476 -0.0859696 0.526707
0.161592 -0.0857679 0.524841
0.163783 -0.0856113 0.52323
0.165758 -0.0853479 0.520945
0.16777 -0.0851113 0.518804
0.170425 -0.0852029 0.51864
0.172093 -0.0848059 0.515481
0.175629 -0.085327 0.517876
0.178791 -0.0856547 0.519065
0.180711 -0.0853867 0.516619
0.183324 -0.0854492 0.51615
0.185988 -0.0855333 0.515785
0.186625 -0.0846947 0.50984
0.189483 -0.0848734 0.510003
0.191724 -0.0847747 0.508475
0.195371 -0.0852918 0.510614
0.197924 -0.0853247 0.509828
0.200361 -0.0853075 0.508722
0.202326 -0.0850922 0.506419
0.203713 -0.0846415 0.502707
0.205791 -0.0844857 0.50074
0.209314 -0.0849195 0.502251
0.211909 -0.0849713 0.501488
0.21457 -0.0850479 0.500864
0.218281 -0.0855343 0.502642
0.220296 -0.0853527 0.500493
0.222186 -0.0851272 0.498095
0.223696 -0.0847628 0.494902
0.228533 -0.085653 0.499041
0.229154 -0.0849611 0.49398
0.231542 -0.0849322 0.492807
0.234802 -0.0852202 0.4935
0.237541 -0.0853149 0.493106
0.239493 -0.0851284 0.491129
0.240764 -0.0847057 0.487844
0.243032 -0.084639 0.486668
0.244008 -0.0841281 0.483001
0.2456 -0.0838374 0.480669
0.248372 -0.0839515 0.480727
0.248626 -0.0832205 0.476023
0.250727 -0.083116 0.474982
0.250826 -0.0823559 0.470278
0.25113 -0.081677 0.466122
0.257235 -0.0828799 0.472788
0.258693 -0.0825769 0.470944
0.259108 -0.0819498 0.467336
0.260969 -0.0817872 0.466461
0.263781 -0.081923 0.467372
0.26577 -0.0818028 0.466903
0.268556 -0.0819281 0.467917
0.270039 -0.0816571 0.466745
0.270999 -0.0812341 0.464778
0.269591 -0.0801146 0.458891
0.27313 -0.080472 0.461529
0.275525 -0.0804889 0.462286
0.278501 -0.080674 0.464078
0.282282 -0.081087 0.467251
-0.408178 -0.13235 0.779759
-0.402797 -0.131885 0.777876
-0.395044 -0.130625 0.771416
-0.38896 -0.129898 0.768193
-0.383458 -0.129353 0.766137
-0.377716 -0.128714 0.763609
-0.370354 -0.127505 0.757762
-0.365255 -0.127058 0.756498
-0.356842 -0.125436 0.748282
-0.353508 -0.125585 0.750664
-0.347056 -0.124616 0.746406
-0.340562 -0.123612 0.741946
-0.33469 -0.122814 0.738726
-0.326867 -0.121274 0.731036
-0.321863 -0.120758 0.729501
-0.316134 -0.119954 0.726222
-0.309219 -0.118677 0.72005
-0.307903 -0.119544 0.726875
-0.300067 -0.11787 0.718231
-0.29584 -0.117591 0.718047
-0.289376 -0.116406 0.712292
-0.284925 -0.116011 0.711333
-0.280012 -0.115417 0.709112
-0.274815 -0.114688 0.706029
-0.270596 -0.114355 0.705335
-0.266643 -0.114126 0.705255
-0.257415 -0.111605 0.690944
-0.252293 -0.110822 0.687321
-0.243487 -0.108378 0.673333
-0.239785 -0.10817 0.673177
-0.236673 -0.108226 0.674634
-0.234365 -0.108657 0.678394
-0.230311 -0.108278 0.677073
-0.225938 -0.107737 0.674693
-0.221478 -0.107139 0.671911
-0.21693 -0.106479 0.668702
-0.21446 -0.106835 0.671836
-0.205649 -0.103995 0.654823
-0.202995 -0.104229 0.657115
-0.201973 -0.105322 0.664797
-0.196736 -0.104216 0.658577
-0.191274 -0.102954 0.651321
-0.188797 -0.103283 0.6541
-0.18583 -0.103351 0.655197
-0.182746 -0.103355 0.655863
-0.180726 -0.103972 0.660394
-0.175825 -0.102923 0.654319
-0.174241 -0.103813 0.660545
-0.169896 -0.103061 0.656299
-0.166572 -0.102912 0.655862
-0.163653 -0.103012 0.656992
-0.16043 -0.10292 0.656876
-0.157618 -0.103094 0.658438
-0.15205 -0.101437 0.648272
-0.148844 -0.10132 0.647921
-0.145589 -0.101163 0.647303
-0.143741 -0.101999 0.653013
-0.140242 -0.101673 0.651273
-0.136742 -0.101334 0.649423
-0.132838 -0.100671 0.645486
-0.129421 -0.100357 0.643758
-0.126225 -0.100202 0.64304
-0.124162 -0.100961 0.64817
-0.119512 -0.0996027 0.639691
-0.116605 -0.0996638 0.640312
-0.113582 -0.0996271 0.640291
-0.110468 -0.0995061 0.639716
-0.107038 -0.0990853 0.6372
-0.104168 -0.099175 0.637955
-0.101682 -0.0996449 0.641145
-0.0968423 -0.0977677 0.62922
-0.0946721 -0.0985523 0.634414
-0.0908416 -0.0976036 0.628441
-0.0882246 -0.0979389 0.630725
-0.0849621 -0.0975562 0.628376
-0.0818546 -0.0973304 0.62703
-0.0788652 -0.0972337 0.626506
-0.075859 -0.097108 0.625789
-0.0722482 -0.0961676 0.619813
-0.0693563 -0.0961458 0.61975
-0.0666506 -0.0963913 0.621405
-0.0632009 -0.0955345 0.615947
-0.0598995 -0.0948312 0.611472
-0.0573868 -0.0953687 0.614993
-0.0545736 -0.0954371 0.615484
-0.0513341 -0.0947264 0.610947
-0.0488068 -0.0953235 0.614839
-0.045764 -0.0949255 0.61231
-0.0432149 -0.0955665 0.616479
-0.0403241 -0.0954893 0.616012
-0.0371929 -0.0947874 0.611511
-0.0340795 -0.0940189 0.606578
-0.0304077 -0.0914335 0.589919
-0.0275979 -0.0911847 0.588333
-0.0248072 -0.0909515 0.586845
-0.021836 -0.0899179 0.58019
-0.0191881 -0.0901122 0.581456
-0.0164294 -0.0897643 0.579221
-0.013579 -0.0886818 0.572245
-0.0109923 -0.0892138 0.575684
-0.00836692 -0.0896723 0.578648
-0.00568248 -0.0896319 0.578391
-0.00303874 -0.090735 0.585512
-0.000326954 -0.0912615 0.58891
0.00241452 -0.0917194 0.591864
0.00517911 -0.0921015 0.594328
0.00790192 -0.0917331 0.591947
0.010606 -0.0913931 0.589748
0.0134804 -0.0923598 0.59598
0.0162404 -0.0923465 0.595885
0.0189215 -0.0919543 0.593345
0.021563 -0.0914931 0.590356
0.0243293 -0.0916062 0.591072
0.02707 -0.0916094 0.591077
0.0296791 -0.0912076 0.588466
0.0321172 -0.0903923 0.583186
0.0348658 -0.0905095 0.583919
0.0376219 -0.090628 0.584658
0.0401352 -0.0901849 0.581771
0.0427078 -0.0899226 0.580047
0.0451468 -0.0894266 0.576813
0.0475199 -0.0888628 0.573139
0.0501776 -0.088863 0.573098
0.0524616 -0.0882344 0.568999
0.0547494 -0.0876723 0.565324
0.0566497 -0.0865692 0.558158
0.0591756 -0.0864769 0.557504
0.0617074 -0.0864007 0.55695
0.0640383 -0.0860604 0.554688
0.0666645 -0.086128 0.555049
0.0691396 -0.0860026 0.554161
0.0716399 -0.0859165 0.55352
0.0740037 -0.0856783 0.551892
0.0771101 -0.086287 0.555712
0.0797786 -0.0863821 0.556216
0.082114 -0.086122 0.554425
0.0844169 -0.0858445 0.552515
0.0867698 -0.0856328 0.55102
0.0891596 -0.0854686 0.549822
0.0914772 -0.0852463 0.548241
0.0939565 -0.0851826 0.547672
0.0965509 -0.085224 0.547767
0.0986844 -0.0848668 0.54529
0.101094 -0.084759 0.544406
0.103885 -0.0849686 0.545549
0.105335 -0.0840976 0.539742
0.108389 -0.0845175 0.54221
0.11082 -0.0844438 0.541496
0.113206 -0.0843395 0.540574
0.115276 -0.0840098 0.538194
0.11769 -0.08394 0.537466
0.120927 -0.0844468 0.540414
0.123231 -0.0842955 0.539133
0.125206 -0.0839296 0.536465
0.127317 -0.0836671 0.534445
0.129548 -0.0834926 0.532972
0.132261 -0.083629 0.533465
0.134244 -0.0833073 0.53102
0.136248 -0.0830104 0.528717
0.139018 -0.0831825 0.529383
0.141392 -0.0831152 0.528505
0.143716 -0.0830218 0.527443
0.146029 -0.0829254 0.526342
0.14818 -0.0827418 0.524669
0.149875 -0.0823136 0.521427
0.153583 -0.0829868 0.525138
0.155819 -0.082856 0.523735
0.157609 -0.0824958 0.520864
0.159864 -0.0823866 0.519558
0.163296 -0.0828779 0.522013
0.16515 -0.0825656 0.51938
0.167172 -0.0823452 0.517307
0.168673 -0.0818785 0.513667
0.172123 -0.0823575 0.515936
0.173846 -0.0820081 0.512989
0.174893 -0.0813545 0.508124
0.177585 -0.0814729 0.508062
0.181032 -0.0819304 0.510084
0.183699 -0.0820272 0.509831
0.18599 -0.0819558 0.508507
0.188628 -0.082037 0.508108
0.190591 -0.0818263 0.505878
0.192153 -0.0814513 0.502617
0.193028 -0.0807978 0.497629
0.199 -0.0822676 0.505687
0.200985 -0.0820736 0.503485
0.201867 -0.0814389 0.498572
0.203548 -0.081138 0.4957
0.205873 -0.0810981 0.494414
0.209456 -0.0815487 0.496103
0.210765 -0.0811138 0.492397
0.216492 -0.0823699 0.49894
0.218623 -0.0822449 0.497103
0.220116 -0.0818852 0.493857
0.221098 -0.0813453 0.489544
0.225122 -0.0819247 0.491978
0.22727 -0.0818156 0.49029
0.229574 -0.0817648 0.488975
0.233672 -0.0823471 0.491469
0.236683 -0.0825385 0.491655
0.237086 -0.0818254 0.486499
0.238813 -0.0815794 0.484177
0.240682 -0.0813864 0.482225
0.243061 -0.0813681 0.481367
0.244507 -0.0810406 0.478745
0.243669 -0.0799701 0.471811
0.246196 -0.0800142 0.471532
0.248309 -0.079924 0.470536
0.250396 -0.0798275 0.469581
0.252567 -0.079759 0.468871
0.253764 -0.0793873 0.466462
0.25409 -0.0787524 0.462592
0.258012 -0.0792335 0.46536
0.26029 -0.0792055 0.465223
0.262917 -0.0792835 0.46579
0.266482 -0.0796402 0.46808
0.268432 -0.0795123 0.467602
0.269086 -0.0790061 0.464978
0.267416 -0.0778322 0.458493
0.268507 -0.0774755 0.456888
0.271566 -0.0776876 0.458707
0.274773 -0.0779384 0.460829
0.273031 -0.0767927 0.454752
0.274711 -0.0766208 0.454494
-0.405457 -0.127536 0.774823
-0.39792 -0.126391 0.768756
-0.392782 -0.125993 0.767338
-0.386455 -0.125201 0.763619
-0.380718 -0.124587 0.761069
-0.373879 -0.123596 0.756291
-0.365887 -0.1222 0.749083
-0.358182 -0.120871 0.742332
-0.351692 -0.119929 0.737989
-0.346661 -0.119469 0.73665
-0.342068 -0.119152 0.736221
-0.333753 -0.117517 0.727663
-0.328942 -0.117095 0.726603
-0.325018 -0.116982 0.727479
-0.319159 -0.116162 0.723955
-0.311556 -0.114682 0.716289
-0.3071 -0.114339 0.715701
-0.299818 -0.112924 0.708371
-0.29673 -0.113074 0.710829
-0.291505 -0.112403 0.708109
-0.283747 -0.110728 0.699008
-0.276793 -0.10933 0.691594
-0.273545 -0.109379 0.693294
-0.270088 -0.109344 0.694439
-0.264677 -0.108508 0.690453
-0.258337 -0.107265 0.683823
-0.252987 -0.106405 0.679583
-0.243436 -0.103733 0.663697
-0.239325 -0.103339 0.66232
-0.238508 -0.104376 0.670087
-0.23665 -0.104979 0.675057
-0.23232 -0.104487 0.672953
-0.227085 -0.103569 0.668056
-0.222671 -0.103004 0.665394
0 0 0
-0.212044 -0.100968 0.65407
0 0 0
-0.20483 -0.100483 0.652626
-0.201434 -0.100335 0.652463
-0.197684 -0.100002 0.651072
-0.194367 -0.0998821 0.651028
-0.189668 -0.0990365 0.646222
-0.186808 -0.0991388 0.647569
-0.185158 -0.0998977 0.653183
-0.181645 -0.0996599 0.652256
-0.178323 -0.0995208 0.651948
-0.175319 -0.0995573 0.652764
-0.172036 -0.099434 0.652507
-0.168093 -0.0989176 0.649643
-0.165715 -0.0993199 0.652788
-0.162888 -0.0994637 0.654215
-0.157114 -0.0977782 0.64358
-0.154368 -0.0979489 0.645134
-0.150689 -0.0975219 0.64273
-0.147993 -0.0977275 0.644475
-0.145386 -0.0980009 0.64665
-0.141013 -0.0970704 0.64086
-0.138214 -0.0972069 0.642092
-0.134161 -0.0964473 0.637388
-0.131069 -0.0963598 0.637105
-0.128216 -0.0964488 0.637973
-0.124182 -0.0956322 0.632833
-0.120632 -0.0951576 0.62994
-0.118789 -0.0960394 0.636011
-0.11489 -0.0952609 0.631075
-0.112623 -0.0958313 0.63506
-0.109207 -0.0954277 0.63258
-0.105829 -0.0950363 0.630166
-0.102011 -0.0942164 0.624898
-0.0988444 -0.0939673 0.623402
-0.0958584 -0.0938801 0.622971
-0.0930141 -0.0939306 0.623442
-0.0897535 -0.0935504 0.621046
-0.0870025 -0.0936937 0.622116
-0.084551 -0.0941806 0.625459
-0.0809265 -0.093349 0.620038
-0.0781726 -0.0934973 0.621117
-0.075065 -0.0932177 0.619347
-0.0717588 -0.0926595 0.615717
-0.0687634 -0.0924729 0.614551
-0.065703 -0.0921791 0.612665
-0.0625567 -0.0917326 0.609758
-0.0595876 -0.0915161 0.608375
-0.0562647 -0.0907075 0.60305
-0.0537369 -0.0911633 0.606127
-0.0509744 -0.0912494 0.606741
-0.048254 -0.0914252 0.607948
-0.0454088 -0.0913716 0.607627
-0.0422842 -0.0907117 0.603269
-0.0399546 -0.0917846 0.610432
-0.0369659 -0.0913914 0.607842
-0.03371 -0.0902182 0.600061
-0.0303591 -0.088557 0.589032
-0.0269827 -0.0864858 0.575271
-0.0243195 -0.086497 0.57536
-0.0216015 -0.0862918 0.574008
-0.0189894 -0.0865117 0.575482
-0.016293 -0.0863567 0.57446
-0.0137613 -0.0871843 0.579973
-0.0112662 -0.088702 0.590075
-0.00856521 -0.089052 0.592408
-0.00577994 -0.0884425 0.588357
-0.00305275 -0.0884271 0.588257
-0.000327721 -0.0887397 0.590337
0.00239803 -0.0883689 0.58787
0.00512338 -0.0883855 0.587978
0.00783571 -0.0882439 0.587034
0.01056 -0.0882755 0.587239
0.0133083 -0.0884537 0.588418
0.0160727 -0.0886598 0.589782
0.0186628 -0.0879845 0.585281
0.021388 -0.0880366 0.585617
0.0239002 -0.0872988 0.580697
0.026527 -0.0870869 0.579274
0.0291025 -0.086761 0.577089
0.0318996 -0.0870949 0.579292
0.0343934 -0.0866129 0.576066
0.0369229 -0.0862841 0.573856
0.039244 -0.0855451 0.568915
0.0416249 -0.0850214 0.565404
0.0441554 -0.084847 0.564213
0.0466568 -0.0846396 0.5628
0.0491092 -0.0843697 0.560967
0.0517318 -0.0844049 0.561159
0.0540866 -0.0840206 0.558558
0.0564846 -0.0837355 0.556613
0.0589516 -0.0835732 0.555479
0.0611663 -0.0830816 0.552153
0.0635404 -0.0828374 0.550466
0.0661168 -0.0828657 0.550585
0.0688601 -0.0830932 0.55202
0.0713947 -0.0830617 0.551729
0.0739406 -0.083045 0.551529
0.0762707 -0.0827952 0.549775
0.0787332 -0.0827006 0.549044
0.0813863 -0.0828058 0.549632
0.0834081 -0.0822819 0.546037
0.0863379 -0.0826583 0.548407
0.0886244 -0.0824147 0.546656
0.0911178 -0.0823719 0.546227
0.0936313 -0.082349 0.545921
0.0961659 -0.0823454 0.545732
0.098451 -0.0821339 0.544155
0.100773 -0.0819626 0.542835
0.102443 -0.0812828 0.538137
0.104862 -0.081216 0.537488
0.107759 -0.0815133 0.539235
0.110557 -0.0817238 0.540394
0.112755 -0.0814912 0.538609
0.115143 -0.0814038 0.537771
0.117268 -0.0811373 0.535737
0.119499 -0.0809539 0.534238
0.121469 -0.080605 0.531634
0.124543 -0.080988 0.533841
0.126812 -0.0808428 0.532549
0.129136 -0.0807374 0.531503
0.130371 -0.0799687 0.526078
0.132404 -0.0797082 0.523983
0.135706 -0.0802075 0.526863
0.137839 -0.0800103 0.525148
0.139894 -0.0797752 0.523167
0.142422 -0.0798138 0.522963
0.144468 -0.0795851 0.520988
0.146967 -0.0796102 0.520655
0.148424 -0.0790784 0.516662
0.150879 -0.0790873 0.516184
0.153881 -0.0793781 0.517521
0.156878 -0.0796575 0.518758
0.159188 -0.0795846 0.517677
0.161211 -0.0793728 0.51567
0.164034 -0.0795549 0.516199
0.165996 -0.0793203 0.514001
0.166475 -0.0783944 0.50731
0.168044 -0.0780011 0.504052
0.171118 -0.0783072 0.505291
0.173605 -0.0783401 0.504739
0.175883 -0.0782791 0.503558
0.177455 -0.0779096 0.500372
0.179716 -0.0778487 0.499149
0.182046 -0.0778186 0.498101
0.18387 -0.077576 0.495672
0.18692 -0.0778503 0.496522
0.190225 -0.0782222 0.497965
0.192269 -0.078073 0.496067
0.194834 -0.0781366 0.495501
0.197116 -0.078086 0.494193
0.199697 -0.078154 0.493616
0.202015 -0.0781185 0.492371
0.20379 -0.0778767 0.489815
0.206567 -0.0780186 0.489662
0.209594 -0.0782509 0.490063
0.210429 -0.0776687 0.485363
0.212589 -0.0775829 0.483772
0.215882 -0.0779081 0.484742
0.22013 -0.0785669 0.487781
0.222292 -0.0784753 0.486164
0.223887 -0.0781874 0.483352
0.226898 -0.0783948 0.483624
0.229895 -0.0785932 0.483861
0.231155 -0.0781998 0.480489
0.234328 -0.0784547 0.48114
0.236376 -0.0783321 0.479518
0.237878 -0.0780325 0.476867
0.240173 -0.0779964 0.475884
0.241218 -0.0775594 0.472519
0.242496 -0.0772049 0.469729
0.244635 -0.0771289 0.468706
0.248536 -0.0776045 0.471105
0.250174 -0.0773713 0.469277
0.251822 -0.0771454 0.467574
0.253258 -0.0768593 0.465591
0.25489 -0.0766376 0.464082
0.256877 -0.0765257 0.463322
0.259529 -0.076612 0.463846
0.262008 -0.0766464 0.464139
0.266058 -0.0771355 0.46727
0.26763 -0.0769038 0.466117
0.264622 -0.0753716 0.457155
0.264997 -0.0748214 0.454217
0.267051 -0.0747508 0.454262
0.270249 -0.0749987 0.456316
0.26845 -0.0738676 0.450043
0.272931 -0.0744687 0.454386
0.279369 -0.0755894 0.46198
-0.397924 -0.121308 0.760688
-0.391357 -0.120474 0.756375
-0.385787 -0.119934 0.754005
-0.384471 -0.120719 0.760071
-0.375927 -0.119227 0.751892
-0.366986 -0.117577 0.742771
-0.359652 -0.116414 0.736769
-0.354921 -0.116078 0.736048
-0.348905 -0.11531 0.732635
-0.340918 -0.113867 0.724953
-0.335511 -0.113265 0.722633
-0.330627 -0.112828 0.721385
-0.326116 -0.11251 0.720909
-0.321558 -0.112168 0.72029
-0.316387 -0.111603 0.718228
-0.305612 -0.109026 0.703179
-0.301301 -0.108721 0.702744
-0.295649 -0.107921 0.699078
-0.290916 -0.107441 0.697458
-0.284532 -0.106332 0.69172
-0.281095 -0.106311 0.693024
-0.274877 -0.105226 0.687347
-0.269991 -0.10463 0.684822
-0.265595 -0.10421 0.683414
-0.259573 -0.103135 0.677656
-0.255319 -0.102743 0.676343
-0.243232 -0.0991482 0.653865
-0.24092 -0.0994961 0.65732
-0.239022 -0.100026 0.661957
-0.236807 -0.100436 0.665778
-0.231525 -0.099539 0.660896
0 0 0
0 0 0
0 0 0
0 0 0
0 0 0
0 0 0
0 0 0
0 0 0
0 0 0
0 0 0
0 0 0
0 0 0
0 0 0
0 0 0
0 0 0
0 0 0
0 0 0
-0.165306 -0.0942785 0.639161
-0.161909 -0.0940475 0.638079
0 0 0
-0.155065 -0.0935284 0.635454
-0.151866 -0.0933907 0.634935
-0.14792 -0.0927788 0.631169
-0.145025 -0.0928146 0.631787
-0.141705 -0.092575 0.630511
-0.138992 -0.0927296 0.631901
-0.135252 -0.0921904 0.628545
-0.131796 -0.0918258 0.626359
-0.129384 -0.0921884 0.629117
-0.126178 -0.0919892 0.628026
-0.122352 -0.0913182 0.623697
-0.119105 -0.0910567 0.622147
-0.116116 -0.0909842 0.621875
-0.113062 -0.0908551 0.621202
-0.110372 -0.0910205 0.62253
-0.107746 -0.0912487 0.624276
-0.105111 -0.0914814 0.626042
-0.100867 -0.0902876 0.618033
-0.0974621 -0.0897967 0.614822
-0.0944128 -0.0896137 0.613708
-0.0912775 -0.0893351 0.611929
-0.0886459 -0.0895474 0.613504
-0.0856784 -0.0894232 0.612765
-0.0828279 -0.0894169 0.612824
-0.080551 -0.0900513 0.617269
-0.0768878 -0.0891255 0.611011
-0.0740335 -0.0891024 0.610934
-0.0710369 -0.0888995 0.609617
-0.0678257 -0.0883999 0.606259
-0.0650057 -0.0883891 0.606248
-0.0618109 -0.0878446 0.602569
-0.0586238 -0.08726 0.598611
-0.0557514 -0.0871091 0.597622
-0.0531307 -0.0873561 0.599359
-0.0504354 -0.0875011 0.600393
-0.0479798 -0.0881031 0.604558
-0.0450176 -0.0877917 0.602453
-0.041992 -0.0873075 0.599159
-0.0390428 -0.0869248 0.596557
-0.0364907 -0.0874351 0.600082
-0.033674 -0.0873436 0.599473
-0.0305171 -0.0862736 0.592147
-0.0273808 -0.0850563 0.583807
-0.0244615 -0.0843198 0.578765
-0.0219761 -0.0850817 0.584006
-0.0194825 -0.0860216 0.590467
-0.0166548 -0.0855527 0.587257
-0.0139545 -0.0856827 0.588156
-0.0112812 -0.086082 0.590902
-0.00850211 -0.0856707 0.588083
-0.00577284 -0.0856107 0.587674
-0.00303485 -0.0851986 0.584847
-0.000324909 -0.0852658 0.58531
0.00239859 -0.0856643 0.588045
0.00505749 -0.084559 0.580455
0.00776399 -0.0847406 0.5817
0.0104275 -0.0844804 0.579909
0.0130937 -0.0843438 0.578967
0.0158161 -0.0845544 0.580406
0.0183895 -0.084023 0.57675
0.0209057 -0.0833983 0.572453
0.0235988 -0.0835405 0.573419
0.0263774 -0.0839261 0.576053
0.0289045 -0.0835141 0.573211
0.0314286 -0.0831633 0.570787
0.0339035 -0.082747 0.567911
0.0364967 -0.0826587 0.567284
0.039 -0.0823922 0.565433
0.0414926 -0.0821383 0.563664
0.0440963 -0.0821211 0.563518
0.0465015 -0.081757 0.560988
0.0490518 -0.0816731 0.560377
0.0514726 -0.0813928 0.558415
0.0537785 -0.0809664 0.555447
0.056013 -0.0804763 0.552038
0.0583206 -0.0801295 0.549609
0.0603207 -0.0794071 0.544599
0.0626757 -0.0791911 0.543058
0.0654324 -0.0794797 0.544972
0.068179 -0.079735 0.546651
0.0711277 -0.0801999 0.549761
0.0733307 -0.0798209 0.547079
0.0756602 -0.0796003 0.545476
0.0778337 -0.0792353 0.542878
0.0806943 -0.0795705 0.54507
0.0833873 -0.0797253 0.546017
0.0854641 -0.0792991 0.542977
0.0873765 -0.0787492 0.539083
0.0896004 -0.0785029 0.53726
0.0918475 -0.0782897 0.535654
0.0937925 -0.0778371 0.532401
0.0969391 -0.0783793 0.535943
0.0990659 -0.0780904 0.53379
0.101609 -0.0781361 0.533914
0.104102 -0.0781415 0.533751
0.10654 -0.0781067 0.533301
0.109136 -0.0781861 0.533617
0.110582 -0.0774567 0.528403
0.113312 -0.0776393 0.529399
0.115632 -0.077539 0.528451
0.117862 -0.0773835 0.527113
0.119821 -0.0770606 0.524622
0.122345 -0.0771061 0.524624
0.124243 -0.0767633 0.52197
0.127453 -0.0772289 0.524796
0.129113 -0.0767552 0.521222
0.13079 -0.0763092 0.517823
0.133232 -0.0763171 0.517488
0.135883 -0.0764433 0.517937
0.138467 -0.0765273 0.518079
0.140507 -0.076313 0.516183
0.143026 -0.0763618 0.516048
0.144256 -0.0757324 0.511314
0.146558 -0.0756772 0.510439
0.14907 -0.07573 0.510272
0.151733 -0.0758573 0.510584
0.15318 -0.075382 0.506821
0.155337 -0.0752653 0.50545
0.159209 -0.0759701 0.509569
0.159754 -0.0750905 0.503039
0.161943 -0.0749979 0.501766
0.16467 -0.0751536 0.502129
0.167198 -0.0752155 0.501841
0.170153 -0.0754649 0.502776
0.171559 -0.0750302 0.499131
0.173792 -0.0749637 0.497916
0.1767 -0.0751864 0.498596
0.179768 -0.0754703 0.499652
0.182603 -0.0756503 0.49999
0.189192 -0.0773605 0.510397
0.190004 -0.0766951 0.505095
0.191494 -0.0763165 0.50167
0.192838 -0.0758899 0.497918
0.194153 -0.0754629 0.494154
0.19586 -0.0751966 0.491431
0.198224 -0.0751859 0.490364
0.200045 -0.0749721 0.487959
0.201019 -0.0744494 0.483539
0.205589 -0.0752554 0.487733
0.207147 -0.0749531 0.484728
0.208794 -0.0746894 0.481973
0.210405 -0.0744187 0.479179
0.21307 -0.0745228 0.4788
0.212429 -0.0734811 0.471078
0.220211 -0.0753439 0.481973
0.222846 -0.0754245 0.481455
0.225581 -0.0755371 0.481157
0.22798 -0.0755357 0.480157
0.230438 -0.0755539 0.479311
0.232051 -0.0752972 0.47676
0.232676 -0.0747287 0.472286
0.233167 -0.074129 0.467676
0.236348 -0.0743882 0.46854
0.238905 -0.0744475 0.468201
0.241501 -0.0745177 0.467992
0.243441 -0.0743864 0.466585
0.246403 -0.0745666 0.467205
0.247288 -0.0741208 0.463979
0.249624 -0.0741145 0.463585
0.25195 -0.0741051 0.463253
0.252958 -0.0737118 0.460604
0.254828 -0.0735748 0.459641
0.257562 -0.0736875 0.460322
0.258354 -0.0732473 0.457632
0.259812 -0.0730024 0.456245
0.260021 -0.0724139 0.452788
0.261961 -0.0723134 0.45246
0.262876 -0.0719343 0.450464
0.262687 -0.0712623 0.446703
0.259782 -0.0698714 0.438492
0.264492 -0.0705346 0.443237
0.267796 -0.070815 0.445651
0.278043 -0.0729115 0.459582
-0.394549 -0.116453 0.754499
-0.385334 -0.114847 0.74503
-0.384543 -0.115745 0.751908
-0.376361 -0.114413 0.744402
-0.368858 -0.113264 0.738143
-0.361603 -0.112167 0.732292
-0.357385 -0.112001 0.732566
-0.35229 -0.111552 0.731055
-0.343441 -0.109894 0.721637
-0.338509 -0.109466 0.720326
-0.333249 -0.108923 0.71827
-0.320784 -0.105986 0.700415
-0.316058 -0.105571 0.699192
-0.312574 -0.105566 0.700693
-0.307604 -0.105053 0.698823
-0.301063 -0.103986 0.693242
-0.298279 -0.104207 0.696234
-0.294241 -0.10399 0.696286
-0.288186 -0.103047 0.691446
-0.283069 -0.10242 0.688692
-0.276499 -0.101246 0.682213
-0.269708 -0.0999625 0.674934
-0.266313 -0.099921 0.676
-0.260956 -0.0991331 0.671979
-0.254269 -0.0978139 0.6643
-0.244325 -0.0951916 0.647691
-0.241487 -0.0953059 0.649641
-0.23888 -0.0955154 0.652214
-0.236573 -0.0958524 0.655632
0 0 0
0 0 0
0 0 0
0 0 0
-0.180115 -0.078181 0.53892
-0.176459 -0.077702 0.536367
-0.173549 -0.0775427 0.53599
-0.170466 -0.0772999 0.535005
-0.166525 -0.076655 0.531206
-0.164052 -0.076676 0.53199
-0.161098 -0.0764699 0.531174
-0.158018 -0.0761959 0.529859
-0.15497 -0.0759291 0.528566
-0.152636 -0.0760092 0.529665
-0.150415 -0.0761493 0.531161
-0.148663 -0.076535 0.534352
0 0 0
0 0 0
0 0 0
0 0 0
0 0 0
0 0 0
0 0 0
0 0 0
-0.144863 -0.0879711 0.618355
-0.142618 -0.0883709 0.621526
-0.140024 -0.0885665 0.623246
-0.137157 -0.0885943 0.623768
-0.134245 -0.0885939 0.624073
-0.131533 -0.0887279 0.62531
-0.128599 -0.088715 0.625495
-0.124837 -0.0881169 0.621538
-0.122037 -0.0881853 0.622265
-0.118612 -0.0877949 0.61974
-0.115042 -0.0872751 0.616285
-0.112069 -0.0871925 0.615903
-0.109278 -0.0872515 0.616509
-0.105939 -0.0868646 0.613952
-0.102513 -0.0863826 0.61071
-0.0993776 -0.0861247 0.609039
-0.0967104 -0.0862697 0.610207
-0.0934214 -0.085852 0.607385
-0.0908598 -0.0860975 0.609246
-0.0877139 -0.0857874 0.607165
-0.0846038 -0.0854928 0.605186
-0.0811995 -0.0848704 0.600877
-0.0779098 -0.0843279 0.597125
-0.0755162 -0.0847511 0.600204
-0.0724076 -0.0843734 0.597604
-0.0694191 -0.0841113 0.595816
-0.066516 -0.0839352 0.594632
-0.0644154 -0.0848002 0.600819
-0.0614274 -0.0845226 0.598904
-0.0581351 -0.08378 0.59369
-0.0550309 -0.0832481 0.589964
-0.0525002 -0.0835736 0.592309
-0.0499606 -0.0839201 0.5948
-0.0467708 -0.0831511 0.589381
-0.0440706 -0.083211 0.589834
-0.0414482 -0.0834355 0.59145
-0.0387244 -0.0834733 0.59174
-0.0360491 -0.0836294 0.592867
-0.03323 -0.0834501 0.591614
-0.0304083 -0.0832314 0.590078
-0.0276164 -0.0830592 0.588871
-0.0247227 -0.0825091 0.584982
-0.022023 -0.082551 0.585289
-0.0192865 -0.0824474 0.584564
-0.0165687 -0.0824029 0.584255
-0.0138836 -0.0825356 0.585202
-0.0111571 -0.0824269 0.584436
-0.00849422 -0.0828686 0.587571
-0.00575786 -0.0826723 0.586182
-0.00301661 -0.0819926 0.581364
-0.000321639 -0.0817228 0.579451
0.00235494 -0.0814301 0.577376
0.00502305 -0.0813115 0.576534
0.00769586 -0.081325 0.576627
0.0103352 -0.0810686 0.574806
0.012903 -0.0804715 0.570568
0.0154836 -0.080144 0.56824
0.0181021 -0.0800788 0.567771
0.0207425 -0.0801153 0.568022
0.023324 -0.0799411 0.566778
0.0258102 -0.0795091 0.563704
0.0283261 -0.0792393 0.561779
0.0309152 -0.0792025 0.561504
0.0337139 -0.0796669 0.56478
0.0363631 -0.0797364 0.565255
0.0388796 -0.079525 0.563735
0.0407645 -0.0781299 0.553823
0.0431339 -0.0777737 0.551272
0.0455407 -0.0775208 0.549451
0.0479828 -0.0773518 0.548222
0.0503761 -0.077125 0.546579
0.0528067 -0.0769742 0.545472
0.055071 -0.076606 0.54282
0.0575917 -0.076611 0.542809
0.0599313 -0.0763848 0.541155
0.0623355 -0.0762557 0.540185
0.0646742 -0.0760597 0.538735
0.067485 -0.0764128 0.541169
0.0699253 -0.076336 0.540553
0.0722561 -0.0761492 0.539152
0.075045 -0.0764415 0.541135
0.0775745 -0.0764593 0.541168
0.0792836 -0.0756926 0.535643
0.0816066 -0.0755409 0.534463
0.0842914 -0.0757231 0.535638
0.0865175 -0.0754946 0.533898
0.0889143 -0.0754237 0.533265
0.091225 -0.0752856 0.532148
0.0935025 -0.075128 0.530884
0.0960646 -0.0752015 0.531242
0.0987263 -0.0753471 0.532099
0.100423 -0.0747673 0.527823
0.102335 -0.0743715 0.524838
0.104878 -0.0744419 0.525131
0.10731 -0.0744322 0.524847
0.109292 -0.074118 0.522403
0.111442 -0.0739292 0.520831
0.113829 -0.0739019 0.520385
0.116406 -0.0739965 0.520782
0.118536 -0.0738092 0.519181
0.121129 -0.0739111 0.5196
0.123036 -0.0735994 0.517096
0.125654 -0.0737165 0.517589
0.127405 -0.0733305 0.514535
0.129942 -0.0734025 0.514678
0.132661 -0.0735732 0.515494
0.134828 -0.073437 0.514142
0.137135 -0.0733801 0.513328
0.140334 -0.0737944 0.515788
0.142384 -0.0736009 0.513979
0.143565 -0.0729721 0.509115
0.144536 -0.0722587 0.503649
0.146823 -0.072216 0.502843
0.149071 -0.0721558 0.501894
0.151066 -0.0719767 0.500098
0.154465 -0.0724616 0.502891
0.157179 -0.0726158 0.503362
0.159327 -0.0725075 0.501989
0.160207 -0.0718339 0.496686
0.163501 -0.0722467 0.498874
0.16765 -0.0730198 0.503514
0.170804 -0.0733442 0.505025
0.172257 -0.0729388 0.501488
0.17927 -0.0748669 0.513953
0.183218 -0.0754799 0.517338
0.183553 -0.074608 0.510524
0.185958 -0.0745895 0.509534
0.186252 -0.0737359 0.502826
0.183103 -0.0715581 0.4871
0.185141 -0.0714376 0.485384
0.189653 -0.0722622 0.490059
0.1903 -0.0716122 0.48471
0.193301 -0.0718532 0.485378
0.195157 -0.0716679 0.483146
0.19794 -0.0718234 0.483196
0.198118 -0.071041 0.476929
0.202384 -0.0717257 0.480501
0.205722 -0.0720696 0.481765
0.20729 -0.0717923 0.478867
0.209421 -0.0717145 0.477302
0.21245 -0.0719424 0.477768
0.215048 -0.0720206 0.477239
0.214635 -0.0711001 0.470112
0.21789 -0.0714013 0.471084
0.222032 -0.0719835 0.473914
0.225401 -0.0723056 0.475042
0.226589 -0.0719286 0.471607
0.222443 -0.0698837 0.4573
0.224015 -0.0696583 0.454967
0.233112 -0.0717541 0.467818
0.233727 -0.071223 0.463574
0.235931 -0.0711821 0.462583
0.239978 -0.0716925 0.465231
0.240896 -0.071267 0.461872
0.241452 -0.0707439 0.457958
0.245268 -0.071177 0.460309
0.246433 -0.0708395 0.457753
0.249369 -0.0710128 0.458577
0.250046 -0.0705455 0.455347
0.251233 -0.0702293 0.453178
0.254335 -0.0704496 0.454553
0.256166 -0.0703166 0.453732
0.257894 -0.0701583 0.452829
0.25935 -0.0699295 0.451551
0.260899 -0.0697294 0.450538
0.261958 -0.0694029 0.448783
0.258362 -0.0678596 0.439224
0.257454 -0.0670424 0.434422
0.259271 -0.0669428 0.434331
0.2649 -0.0678209 0.440657
0.260029 -0.0660186 0.429622
-0.384795 -0.109842 0.736104
-0.38219 -0.110167 0.739245
-0.377336 -0.109844 0.738142
-0.371275 -0.109159 0.734697
-0.362645 -0.107697 0.72609
-0.35714 -0.107143 0.723659
-0.353221 -0.107058 0.724458
-0.347962 -0.106562 0.722523
-0.33906 -0.104927 0.712895
-0.333369 -0.104262 0.709863
-0.323023 -0.102111 0.696709
-0.318358 -0.101729 0.695611
-0.315002 -0.101762 0.69736
-0.309644 -0.101141 0.694633
-0.302477 -0.0999083 0.687684
-0.297049 -0.0992286 0.684508
-0.292348 -0.0987792 0.682898
-0.287125 -0.098141 0.679955
-0.282121 -0.0975634 0.677398
-0.274856 -0.096181 0.669207
-0.270035 -0.095631 0.666759
-0.267812 -0.0959986 0.670682
-0.263045 -0.095452 0.668189
-0.252343 -0.0927117 0.650268
-0.24549 -0.0913336 0.641817
-0.242617 -0.0914203 0.643613
-0.239956 -0.0915902 0.645968
-0.234212 -0.090572 0.639902
0 0 0
0 0 0
0 0 0
-0.186803 -0.0762449 0.542172
-0.178839 -0.0740211 0.527141
-0.176384 -0.0740459 0.528075
-0.174091 -0.0741406 0.529483
-0.171618 -0.0741606 0.530332
-0.168115 -0.0737289 0.527923
-0.164661 -0.0733063 0.525547
-0.160903 -0.0727333 0.52206
-0.158317 -0.0726803 0.522276
-0.155794 -0.0726554 0.52267
-0.152486 -0.0722572 0.520353
-0.149457 -0.0719806 0.518884
-0.147143 -0.0720453 0.519853
-0.14418 -0.0717884 0.518479
-0.140807 -0.0713151 0.515516
-0.138283 -0.0712632 0.515577
-0.134603 -0.0706028 0.511211
-0.132285 -0.070646 0.511918
-0.129397 -0.0703801 0.510365
-0.126438 -0.0700655 0.50844
-0.125958 -0.0711385 0.516569
-0.124353 -0.0716058 0.520292
0 0 0
0 0 0
0 0 0
0 0 0
0 0 0
0 0 0
0 0 0
0 0 0
0 0 0
-0.11585 -0.0829333 0.605466
-0.11381 -0.0835034 0.609835
-0.110412 -0.083081 0.606943
-0.107672 -0.0831451 0.607592
-0.104512 -0.0828786 0.605813
-0.101215 -0.0824864 0.603103
-0.0984532 -0.0825202 0.603497
-0.0955563 -0.0824395 0.603042
-0.0921956 -0.0819417 0.599527
-0.0891427 -0.0816951 0.597839
-0.0864447 -0.0817682 0.598481
-0.0835694 -0.0816729 0.597884
-0.0801542 -0.0810254 0.593234
-0.077089 -0.0806981 0.590922
-0.0750786 -0.0814916 0.59681
-0.0722339 -0.0814056 0.596251
-0.0689663 -0.0808172 0.592006
-0.0664004 -0.0810363 0.593671
-0.0629963 -0.0802073 0.58765
-0.0603236 -0.0802766 0.588207
-0.0574867 -0.0801236 0.587129
-0.0545792 -0.0798522 0.585179
-0.0515609 -0.0793816 0.581766
-0.0489598 -0.079537 0.582936
-0.0463709 -0.0797315 0.584391
-0.0438937 -0.080154 0.587513
-0.0409173 -0.0796607 0.58392
-0.0379553 -0.0791273 0.58003
-0.0357477 -0.0802055 0.58795
-0.0330394 -0.0802453 0.588257
-0.0302247 -0.0800106 0.586551
-0.0273991 -0.0796982 0.584272
-0.0246934 -0.0797036 0.584322
-0.0219384 -0.079532 0.583072
-0.0192113 -0.0794279 0.582316
-0.0164846 -0.0792911 0.58132
-0.0137629 -0.07913 0.580143
-0.0110476 -0.078936 0.578725
-0.00836592 -0.0789353 0.578723
-0.00566623 -0.0786836 0.57688
-0.00298453 -0.0784554 0.575207
-0.000315454 -0.0775177 0.568333
0.002317 -0.0774859 0.568099
0.00499339 -0.0781756 0.573155
0.00762554 -0.0779344 0.571385
0.0102152 -0.0774949 0.56816
0.0127758 -0.0770606 0.564972
0.0153988 -0.0770861 0.565155
0.017956 -0.0768229 0.563219
0.0205133 -0.0766267 0.561775
0.0230228 -0.0763162 0.55949
0.0254574 -0.0758455 0.55603
0.0281826 -0.0762476 0.558967
0.030849 -0.0764362 0.560337
0.0331945 -0.0758622 0.556115
0.0353512 -0.0749706 0.549564
0.0379092 -0.0749925 0.549706
0.0404702 -0.0750173 0.549867
0.0429344 -0.0748703 0.548767
0.0453436 -0.0746493 0.547121
0.0476845 -0.0743452 0.544863
0.0500935 -0.0741726 0.543566
0.0525123 -0.0740301 0.542487
0.0548275 -0.0737616 0.540479
0.0571429 -0.0735165 0.538641
0.0593659 -0.0731782 0.536114
0.0618593 -0.0731869 0.536126
0.0645645 -0.0734359 0.537892
0.0669447 -0.0733105 0.536911
0.0689846 -0.0728348 0.533359
0.0712789 -0.0726513 0.531942
0.0735338 -0.0724413 0.530324
0.075879 -0.0723309 0.52943
0.0783439 -0.072338 0.529388
0.0805174 -0.0720838 0.527427
0.0836751 -0.0726997 0.531823
0.085132 -0.071845 0.525454
0.0882604 -0.0724092 0.529455
0.0906932 -0.0723876 0.529161
0.0928801 -0.072176 0.52747
0.0950631 -0.0719724 0.525828
0.0970651 -0.0716454 0.523275
0.0991874 -0.071421 0.521462
0.101553 -0.071378 0.520963
0.103155 -0.0708137 0.516649
0.106791 -0.071639 0.522461
0.108812 -0.0713679 0.520262
0.111161 -0.0713196 0.519676
0.113123 -0.0710303 0.51732
0.115904 -0.0712564 0.518705
0.118026 -0.0710765 0.517119
0.119965 -0.0707959 0.514788
0.122953 -0.0711332 0.516933
0.123861 -0.0702774 0.510395
0.125917 -0.070093 0.508722
0.127856 -0.0698511 0.506616
0.131164 -0.0703526 0.509883
0.131756 -0.0694055 0.502636
0.135271 -0.0700048 0.506572
0.13638 -0.069359 0.501479
0.138554 -0.0692678 0.500382
0.140868 -0.0692488 0.499787
0.144026 -0.0696383 0.502118
0.146126 -0.069512 0.500706
0.147963 -0.0692663 0.498417
0.150383 -0.0692969 0.498096
0.152524 -0.0692004 0.496839
0.155392 -0.0694313 0.497911
0.157063 -0.0691286 0.495133
0.159567 -0.0691961 0.494985
0.165234 -0.0706135 0.504457
0.169986 -0.0716048 0.510837
0.171934 -0.0714034 0.508676
0.17338 -0.0710023 0.505074
0.176018 -0.0710936 0.504953
0.182289 -0.0726297 0.51505
0.185268 -0.0728309 0.515637
0.183878 -0.0713318 0.504174
0.181958 -0.0696691 0.49157
0.183821 -0.0694787 0.489354
0.182337 -0.0680439 0.478369
0.181995 -0.0670659 0.470607
0.18381 -0.0668973 0.468518
0.188078 -0.0676149 0.47261
0.19123 -0.0679186 0.473774
0.191783 -0.0673027 0.468512
0.195795 -0.0679013 0.471689
0.198954 -0.0681934 0.47271
0.202896 -0.068744 0.475501
0.204855 -0.0686181 0.473596
0.208195 -0.0689522 0.474859
0.212987 -0.0697544 0.479326
0.21221 -0.0687353 0.471283
0.213052 -0.0682568 0.466975
0.215208 -0.0682054 0.465609
0.217422 -0.0681729 0.464388
0.220212 -0.0683199 0.464409
0.221716 -0.0680694 0.461755
0.223034 -0.0677671 0.45879
0.22631 -0.0680599 0.45989
0.22713 -0.0676157 0.456055
0.23268 -0.0685745 0.461726
0.234992 -0.0685692 0.460949
0.237307 -0.0685653 0.460241
0.240887 -0.0689231 0.462023
0.239765 -0.0679416 0.454902
0.240404 -0.0674732 0.451299
0.242661 -0.0674632 0.450841
0.242045 -0.0666625 0.445181
0.24484 -0.0668072 0.445917
0.246554 -0.0666571 0.444765
0.248835 -0.0666615 0.444728
0.252256 -0.0669685 0.446789
0.25636 -0.0674496 0.450096
0.257668 -0.0671931 0.448561
0.256406 -0.0662771 0.4427
0.259171 -0.0664085 0.443909
0.260148 -0.0660837 0.442144
0.255956 -0.0644625 0.431764
0.26238 -0.0655199 0.439391
0.262206 -0.0649255 0.436012
0.260551 -0.0639776 0.430309
-0.379242 -0.10458 0.725737
-0.372911 -0.103841 0.721583
-0.369461 -0.103898 0.723055
-0.363105 -0.10313 0.718875
-0.357166 -0.102467 0.715489
-0.351147 -0.101767 0.711907
-0.34843 -0.102019 0.715048
-0.344352 -0.101874 0.715463
-0.333133 -0.0995907 0.700876
-0.32721 -0.0988596 0.697207
-0.319278 -0.097499 0.689097
-0.31249 -0.0964619 0.68326
-0.309303 -0.0965259 0.685221
-0.301403 -0.0951042 0.676625
-0.297828 -0.0950307 0.677598
-0.289801 -0.0935187 0.668287
-0.287603 -0.0938749 0.672301
-0.282477 -0.0932724 0.669432
-0.276348 -0.0923204 0.664016
-0.272096 -0.0919806 0.662963
-0.269207 -0.0920988 0.665187
-0.258296 -0.0894423 0.647308
-0.25133 -0.088103 0.63888
-0.247116 -0.0877068 0.637237
-0.24352 -0.0875229 0.637102
-0.240512 -0.0875484 0.638459
-0.237016 -0.0873946 0.638476
-0.229017 -0.0855545 0.626117
0 0 0
0 0 0
-0.18463 -0.0718024 0.52805
-0.181253 -0.0714665 0.526382
-0.178294 -0.0712884 0.525844
-0.175496 -0.0711702 0.52572
-0.172478 -0.0709582 0.524873
-0.169445 -0.0707338 0.523905
-0.166669 -0.0706116 0.523666
-0.163312 -0.0702358 0.521517
-0.159118 -0.0694829 0.516534
-0.156334 -0.0693322 0.515996
-0.153937 -0.0693505 0.516693
-0.151525 -0.069363 0.517323
-0.148192 -0.0689469 0.514733
-0.145307 -0.0687294 0.513599
-0.142398 -0.0684928 0.512298
-0.14058 -0.0687818 0.514908
-0.136554 -0.0679815 0.509342
-0.133597 -0.0676946 0.507595
-0.1315 -0.0678409 0.509078
-0.128136 -0.0673269 0.505586
-0.125756 -0.0673203 0.505884
-0.123068 -0.067145 0.504897
-0.120364 -0.0669544 0.503777
-0.117643 -0.0667469 0.502512
-0.114793 -0.0664554 0.500597
-0.111657 -0.0659834 0.497305
-0.109209 -0.0659065 0.496975
-0.107747 -0.0664342 0.501191
-0.105698 -0.0666151 0.502781
-0.103341 -0.0666056 0.502921
-0.101069 -0.0666521 0.503472
0 0 0
0 0 0
0 0 0
0 0 0
0 0 0
0 0 0
0 0 0
0 0 0
0 0 0
-0.0902969 -0.0775278 0.587282
-0.0878035 -0.0777341 0.588954
-0.0857887 -0.0783909 0.594033
-0.0827753 -0.0781487 0.592292
-0.0797297 -0.0778583 0.590177
-0.0768352 -0.0777 0.589057
-0.0734667 -0.077033 0.584072
-0.0706472 -0.0769127 0.583226
-0.0681257 -0.0771201 0.584858
-0.0651694 -0.0768321 0.582729
-0.0623588 -0.0766984 0.581764
-0.0598423 -0.0769307 0.583571
-0.0564466 -0.0760012 0.57656
-0.0536607 -0.0758412 0.575382
-0.0510114 -0.0758676 0.575614
-0.0483763 -0.0759193 0.576034
-0.045786 -0.0760513 0.577061
-0.0433187 -0.0764168 0.579858
-0.0404736 -0.0761199 0.577625
-0.0377738 -0.0760738 0.577292
-0.0352619 -0.0764279 0.579995
