ply
format ascii 1.0
comment Generated by sampleExportPLY
element vertex 1813
property float x
property float y
property float z
element face 0
property list uchar int vertex_index
end_header
-0.283626 0.173857 0.675662
-0.279457 0.173362 0.675026
-0.274266 0.172214 0.67185
-0.269222 0.171131 0.668919
-0.266076 0.171242 0.67066
-0.26333 0.171617 0.673436
-0.261382 0.172528 0.678326
-0.261336 0.174734 0.688327
-0.258172 0.174886 0.690243
-0.25724 0.176575 0.698224
-0.254599 0.17712 0.701685
-0.252853 0.178311 0.707701
-0.250783 0.179303 0.712921
-0.248627 0.180261 0.718
-0.247392 0.181923 0.725875
-0.24516 0.18289 0.730969
-0.242457 0.18353 0.734738
-0.23988 0.184284 0.738949
-0.236935 0.184775 0.742081
-0.228184 0.180683 0.726758
0 0 0
-0.197213 0.161107 0.64992
-0.193005 0.160207 0.647196
-0.189336 0.159733 0.646159
-0.185786 0.159346 0.645441
-0.181141 0.157989 0.640762
-0.177888 0.157822 0.640874
-0.174288 0.157335 0.639659
-0.170638 0.156785 0.638158
-0.166668 0.155916 0.635326
-0.163735 0.156002 0.636362
-0.160238 0.155544 0.635148
-0.156686 0.155014 0.633618
-0.153161 0.154491 0.632089
-0.149211 0.15351 0.628654
-0.146012 0.153277 0.628261
-0.142851 0.153075 0.627969
-0.139645 0.152815 0.627419
-0.135743 0.151766 0.623604
-0.132483 0.151404 0.622589
-0.129314 0.151132 0.621927
-0.126048 0.150731 0.62071
-0.122498 0.149964 0.617964
-0.119615 0.149995 0.618489
-0.116904 0.15025 0.61992
-0.113532 0.149647 0.617793
-0.110751 0.14981 0.618816
-0.1074 0.149191 0.61659
-0.104271 0.148855 0.615517
-0.101159 0.148524 0.614447
-0.0977893 0.147785 0.611673
-0.0945578 0.147216 0.60959
-0.0914238 0.146768 0.607992
-0.0887745 0.147094 0.60959
-0.085827 0.146932 0.60915
-0.0826865 0.146417 0.607235
-0.0797229 0.146189 0.6065
-0.0767591 0.145945 0.605684
-0.0737423 0.145577 0.604343
-0.0707028 0.145133 0.602677
-0.0676573 0.144639 0.600794
-0.0647943 0.14451 0.600414
-0.0618265 0.144125 0.598961
-0.0588665 0.143722 0.597426
-0.0558847 0.143223 0.595483
-0.0528594 0.142555 0.592827
-0.0500847 0.142527 0.592821
-0.047245 0.142299 0.591979
-0.0443638 0.14191 0.59046
0 0 0
-0.0317966 0.116117 0.483284
-0.0294943 0.115919 0.482523
-0.0272739 0.116037 0.483071
-0.0250925 0.116357 0.484455
-0.022846 0.116408 0.484718
-0.0206153 0.11656 0.485392
-0.0183872 0.116766 0.486289
-0.0161385 0.11688 0.486799
-0.0138501 0.116697 0.486064
-0.0116245 0.117076 0.487669
-0.0093458 0.116973 0.487259
-0.00710517 0.117434 0.489195
-0.00482398 0.117343 0.488828
-0.00254432 0.11716 0.488073
-0.000272817 0.117435 0.489222
0.00200398 0.117395 0.489054
0.00429582 0.117811 0.490778
0.00661878 0.118494 0.493616
0.00891831 0.118515 0.493685
0.011229 0.118645 0.494207
0.013886 0.121766 0.507186
0 0 0
0 0 0
0 0 0
0 0 0
0 0 0
0.0286499 0.124349 0.51769
0.0313726 0.125595 0.522814
0.0338607 0.125789 0.523556
0.0362791 0.125716 0.523179
0.0386579 0.125524 0.522299
0.0410942 0.12553 0.522238
0.0434951 0.125433 0.521745
0.0456016 0.124542 0.517943
0.0479433 0.124352 0.517045
0.050457 0.124604 0.517983
0.0527513 0.124316 0.516668
0.0550645 0.124095 0.515627
0.0573572 0.123849 0.514472
0.0598471 0.124032 0.515089
0.062034 0.123597 0.513133
0.0642075 0.123168 0.511197
0.0664233 0.122848 0.509705
0.0680274 0.121459 0.503768
0.0700811 0.120938 0.501428
0.0718597 0.119991 0.497316
0.0739892 0.119672 0.495794
0.0762407 0.119563 0.495136
0.0786327 0.119674 0.495381
0.0809895 0.119728 0.495372
0.08521 0.122456 0.506416
0.0918346 0.128398 0.530719
0.09586 0.130488 0.539072
0.0983038 0.130373 0.538297
0.101172 0.130812 0.539798
0.103523 0.130578 0.538504
0.105351 0.12971 0.534586
0.107999 0.129869 0.534887
0.11058 0.129943 0.534822
0.113282 0.130152 0.535297
0.116056 0.130433 0.536048
0.11853 0.130372 0.535377
0.120929 0.130232 0.534366
0.122832 0.129576 0.531223
0.124991 0.12921 0.529257
0.127656 0.129371 0.529431
0.130213 0.129419 0.529121
0.132841 0.129534 0.52907
0.135075 0.129267 0.527438
0.136863 0.128592 0.524125
0.139017 0.128278 0.522269
0.142648 0.129315 0.525889
0.144879 0.129068 0.524265
0.145788 0.127672 0.51796
0.148658 0.128011 0.518679
0.151763 0.128539 0.520136
0.154491 0.128735 0.520226
0.157173 0.128887 0.520116
0.160081 0.129216 0.520699
0.162458 0.129114 0.519521
0.165346 0.129415 0.519939
0.16764 0.129248 0.51846
0.169434 0.128707 0.515464
0.172223 0.128926 0.515494
0.175055 0.129171 0.515602
0.179895 0.13087 0.521485
0 0 0
0 0 0
0.316494 0.220893 0.875486
0.326367 0.224742 0.889088
0.353151 0.239981 0.947589
0.363599 0.243866 0.961099
0.370786 0.245494 0.965653
0.376145 0.245885 0.96532
0.382365 0.246822 0.967115
0.39007 0.248682 0.972507
0.397464 0.250301 0.976939
0.404124 0.251425 0.97943
0.411596 0.253021 0.983766
0.418704 0.254358 0.987101
0.422182 0.253484 0.981896
0.425288 0.25241 0.975976
0.428384 0.251354 0.970199
0.429855 0.24938 0.960964
0.428346 0.24574 0.94542
0 0 0
0 0 0
0 0 0
0.451019 0.247722 0.947863
0.455331 0.247455 0.945819
0.458087 0.246356 0.940726
0.46009 0.244879 0.934329
0.461881 0.243321 0.927764
0.462145 0.240998 0.918429
0.461954 0.238486 0.908521
0.461136 0.235704 0.89773
0.461519 0.233585 0.889606
0.462349 0.23173 0.882629
0.463065 0.229855 0.875708
0.461884 0.227082 0.865501
0.462614 0.225293 0.859164
0.45823 0.221071 0.843663
0.457731 0.218783 0.835651
0.459942 0.21782 0.832811
0.46235 0.216968 0.830501
0.463192 0.215403 0.825565
0.46021 0.212103 0.814066
0.449035 0.205119 0.788471
0.447988 0.202844 0.781017
0.448756 0.201423 0.776921
0.450569 0.200492 0.774785
0.450902 0.198923 0.770255
0.452873 0.198098 0.768661
0.453174 0.196562 0.76437
0 0 0
-0.372181 0.189714 0.70897
-0.36629 0.188539 0.70443
-0.36171 0.188023 0.70246
-0.35619 0.187003 0.698717
-0.353324 0.18737 0.700262
-0.349652 0.187312 0.700329
-0.344786 0.186607 0.698078
-0.339929 0.185892 0.695889
-0.33584 0.185587 0.695328
-0.332017 0.185424 0.69539
-0.327878 0.185079 0.694858
-0.322312 0.183912 0.69132
-0.317909 0.18339 0.690275
-0.313306 0.182741 0.688814
-0.307951 0.181633 0.685683
-0.303348 0.180948 0.684195
-0.298355 0.180013 0.681803
-0.293563 0.179178 0.679826
-0.288465 0.178135 0.677084
-0.285271 0.178257 0.678794
-0.280043 0.177095 0.675636
-0.275361 0.176255 0.673708
-0.272283 0.176433 0.675685
-0.267221 0.175314 0.672696
-0.263866 0.175301 0.673947
-0.261281 0.175806 0.677194
-0.261289 0.17809 0.687312
-0.25904 0.178877 0.691664
-0.256466 0.179458 0.695219
-0.254289 0.180335 0.69992
-0.253129 0.181967 0.707556
-0.251221 0.1831 0.713246
-0.2491 0.184107 0.718442
-0.248177 0.186041 0.727253
-0.245283 0.186531 0.730414
-0.242736 0.187304 0.734661
-0.240665 0.188473 0.740448
-0.237643 0.188921 0.743384
-0.233937 0.18883 0.744176
0 0 0
0 0 0
-0.194288 0.1644 0.650743
-0.190573 0.163895 0.649636
-0.186944 0.163448 0.648729
-0.182655 0.1624 0.645401
-0.178815 0.161721 0.643508
-0.175025 0.161064 0.641672
-0.170908 0.160078 0.63849
-0.167893 0.160107 0.639327
-0.164495 0.159765 0.63866
-0.160806 0.159123 0.636762
-0.157036 0.158374 0.634408
-0.153847 0.158192 0.634302
-0.151147 0.158517 0.636205
-0.146568 0.156844 0.630062
-0.143526 0.156781 0.63036
-0.140283 0.15649 0.629717
-0.136821 0.155938 0.628002
-0.132982 0.154922 0.624396
-0.130145 0.155053 0.625388
-0.127175 0.155028 0.625736
-0.123816 0.154517 0.624102
-0.12088 0.154522 0.624531
-0.117787 0.154321 0.624112
-0.114494 0.153842 0.622547
-0.111023 0.15309 0.619863
-0.107688 0.152493 0.617784
-0.104619 0.152248 0.617116
-0.101321 0.151647 0.614989
-0.0981813 0.151255 0.613693
-0.0947429 0.150365 0.610361
-0.0920001 0.150557 0.611409
-0.0891046 0.150504 0.611449
-0.0861543 0.150353 0.611073
-0.0829412 0.149716 0.608713
-0.0800082 0.149558 0.608286
-0.0770469 0.149333 0.607577
-0.0740892 0.149098 0.606815
-0.0710665 0.148708 0.605414
-0.0682207 0.148672 0.605439
-0.065183 0.148196 0.603664
-0.0619022 0.147099 0.599351
-0.0590536 0.146975 0.598987
-0.0561656 0.146735 0.598143
-0.0532724 0.146456 0.597132
-0.0503492 0.146058 0.595629
-0.047392 0.14551 0.593505
-0.0443353 0.14457 0.58977
-0.0408835 0.142131 0.579914
-0.0328373 0.122243 0.498844
-0.0295488 0.118386 0.483168
-0.0273295 0.118529 0.483812
-0.0251692 0.118976 0.485693
-0.0228869 0.118878 0.485344
-0.0206411 0.118969 0.48576
-0.0184187 0.119234 0.486884
-0.0161653 0.119345 0.48737
-0.0139322 0.119666 0.488712
-0.0116321 0.119424 0.487751
-0.00940121 0.119949 0.489914
-0.00712203 0.119996 0.490123
-0.00484241 0.120076 0.490463
-0.00255857 0.120101 0.490575
-0.000274017 0.120239 0.491141
0.00201728 0.120466 0.492065
0.00431742 0.120699 0.49301
0.00661707 0.120761 0.493254
0.00892836 0.120949 0.494005
0.0112293 0.120949 0.493984
0.0139267 0.124492 0.508431
0 0 0
0 0 0
0 0 0
0.0236965 0.126068 0.51471
0.0263788 0.12744 0.520258
0.028868 0.127726 0.521369
0.0313791 0.128057 0.522656
0.0338379 0.128143 0.522935
0.0362365 0.128004 0.522293
0.0385301 0.127535 0.520299
0.0410066 0.127691 0.520848
0.0434124 0.127623 0.520473
0.0455353 0.126773 0.516908
0.0478286 0.12646 0.515523
0.0501878 0.126343 0.514929
0.0524025 0.125889 0.512959
0.0548007 0.125896 0.51286
0.0571175 0.125724 0.51202
0.0593238 0.125332 0.51028
0.0616902 0.125295 0.509979
0.064191 0.125524 0.51075
0.066427 0.125238 0.509413
0.0680474 0.12385 0.503593
0.0694927 0.122248 0.496893
0.0712596 0.121297 0.492835
0.0736777 0.121479 0.493373
0.0762179 0.121845 0.494648
0.0786228 0.12198 0.494971
0.0833476 0.125603 0.509431
0 0 0
0.0939518 0.133905 0.542552
0.0965809 0.134019 0.542715
0.0988753 0.133673 0.541009
0.101364 0.133602 0.540398
0.104142 0.133905 0.541286
0.10634 0.133467 0.539165
0.108486 0.132985 0.536853
0.111437 0.13349 0.538511
0.114371 0.133951 0.539974
0.116268 0.133205 0.536553
0.118842 0.13325 0.536303
0.121829 0.133746 0.537853
0.123829 0.133161 0.535036
0.126392 0.133191 0.534679
0.129259 0.133536 0.535559
0.130788 0.132511 0.530935
0.134162 0.133359 0.533796
0.136239 0.13291 0.531441
0.138584 0.132734 0.530165
0.140919 0.132555 0.528856
0.143258 0.132386 0.527571
0.145519 0.132153 0.526007
0.149321 0.133302 0.529923
0.150686 0.132274 0.525164
0.153777 0.13277 0.526437
0.155159 0.131799 0.52187
0.158827 0.132769 0.524972
0.161474 0.132868 0.524604
0.16372 0.13264 0.522924
0.166693 0.132999 0.523534
0.168494 0.132426 0.520458
0.171826 0.133055 0.522087
0.174524 0.133182 0.521722
0.177072 0.133193 0.520879
0.182715 0.135499 0.528982
0 0 0
0 0 0
0 0 0
0 0 0
0 0 0
0.37496 0.256364 0.989848
0.374942 0.25306 0.97522
0.3778 0.251756 0.968329
0.383323 0.252239 0.968312
0.392025 0.254776 0.976165
0.399442 0.256425 0.980598
0.406555 0.257843 0.984142
0.413588 0.259176 0.98737
0.41872 0.259301 0.986021
0.422238 0.258435 0.980954
0.425028 0.257148 0.974356
0.426867 0.255322 0.965798
0.425654 0.251732 0.950673
0.410143 0.23986 0.90444
0.411345 0.237916 0.895806
0 0 0
0.448429 0.25378 0.953057
0.452358 0.253276 0.950096
0.454988 0.252064 0.9446
0.45642 0.25022 0.936875
0.457904 0.248442 0.92954
0.459392 0.246703 0.922492
0.460876 0.244997 0.915712
0.461781 0.24302 0.908063
0.460732 0.240065 0.896899
0.461212 0.237956 0.889041
0.462186 0.236141 0.882413
0.462954 0.234256 0.87566
0.462072 0.231581 0.866079
0.463684 0.230194 0.861437
0.462011 0.227217 0.850965
0.461452 0.224839 0.842837
0.461432 0.222764 0.835951
0.461728 0.220878 0.829873
0.460599 0.218351 0.821473
0.451119 0.211945 0.798542
0.447388 0.208331 0.786167
0.446269 0.205985 0.778639
0.447152 0.204595 0.774793
0.446619 0.202588 0.768669
0.447918 0.201439 0.765857
0.450278 0.200783 0.764984
0.452334 0.200003 0.763704
0 0 0
-0.368 0.191151 0.701124
-0.367707 0.192869 0.707221
-0.364035 0.192832 0.706984
-0.35811 0.191588 0.702434
-0.354349 0.191488 0.702187
-0.351807 0.192052 0.704479
-0.346092 0.190877 0.700499
-0.342368 0.190788 0.7006
-0.337208 0.189888 0.697824
-0.332918 0.189464 0.696887
-0.328869 0.18917 0.696513
-0.325139 0.189054 0.696885
-0.319 0.187521 0.692102
-0.31441 0.186873 0.690652
-0.308917 0.185669 0.687205
-0.305385 0.185628 0.688119
-0.30195 0.185647 0.689309
-0.297581 0.185086 0.68839
-0.290765 0.182971 0.681716
-0.286211 0.182246 0.680239
-0.283503 0.182694 0.683165
-0.277962 0.181304 0.679239
-0.274399 0.181187 0.680085
-0.270735 0.180999 0.680677
-0.264327 0.178948 0.674254
-0.261585 0.179359 0.677097
-0.260374 0.180843 0.684006
-0.258983 0.182241 0.690601
-0.256388 0.182816 0.694089
-0.254194 0.183697 0.698732
-0.253913 0.186003 0.708807
-0.252188 0.187301 0.715046
-0.250997 0.189038 0.722962
-0.248115 0.189532 0.726121
-0.245539 0.190278 0.730227
-0.24311 0.191162 0.734849
-0.241442 0.192678 0.741891
-0.238309 0.193054 0.744529
-0.23464 0.193001 0.745483
-0.22991 0.19206 0.742975
0 0 0
-0.195816 0.168846 0.655074
-0.191159 0.167527 0.650862
-0.1879 0.16741 0.651288
-0.184346 0.167021 0.650629
-0.179977 0.165868 0.646957
-0.17658 0.165587 0.646652
-0.172547 0.164688 0.643906
-0.169026 0.164255 0.642951
-0.165317 0.163618 0.64117
-0.162408 0.163765 0.642433
-0.157962 0.162338 0.637495
-0.154726 0.162123 0.637285
-0.151657 0.162078 0.63772
-0.148453 0.161884 0.637546
-0.144475 0.16082 0.633922
-0.140999 0.160282 0.632343
-0.137499 0.159692 0.630533
-0.133845 0.158893 0.627877
-0.130581 0.158532 0.626927
-0.127579 0.15848 0.62718
-0.124481 0.158303 0.626918
-0.121207 0.157887 0.625691
-0.11816 0.157754 0.62557
-0.115088 0.157582 0.625271
-0.111914 0.157255 0.624342
-0.108198 0.156129 0.620224
-0.104938 0.155618 0.618527
-0.101724 0.155146 0.616971
-0.0983678 0.154425 0.614405
-0.0954546 0.154376 0.614499
-0.0926244 0.154463 0.61512
-0.0894763 0.154008 0.61357
-0.0865134 0.153852 0.613198
-0.083448 0.153496 0.612019
-0.0802548 0.152873 0.609756
-0.0773161 0.152706 0.609301
-0.0741791 0.152119 0.607161
-0.0713547 0.152152 0.607484
-0.0684466 0.152002 0.607065
-0.0655439 0.151852 0.606634
-0.0628039 0.152081 0.607713
-0.0595969 0.151149 0.604137
-0.0563887 0.15012 0.600167
-0.053399 0.149596 0.598204
-0.050456 0.149152 0.596551
-0.0476007 0.148931 0.595782
-0.0447219 0.148605 0.594581
-0.0412156 0.146012 0.584303
0 0 0
-0.029767 0.121529 0.486473
-0.0274603 0.121362 0.485867
-0.0252132 0.121451 0.486284
-0.0230139 0.121812 0.487781
-0.0207546 0.121899 0.488176
-0.0183792 0.121242 0.485586
-0.0162147 0.121986 0.488606
-0.0139532 0.122126 0.489198
-0.0116995 0.122401 0.490326
-0.00942321 0.122517 0.490811
-0.00713553 0.12251 0.490803
-0.00486044 0.122816 0.49204
-0.0025681 0.122842 0.492153
-0.000274556 0.122768 0.491858
0.0020199 0.122918 0.492457
0.0043222 0.123131 0.493307
0.0066196 0.123106 0.493192
0.00891257 0.123032 0.492881
0.0112422 0.123391 0.494298
0.0138433 0.126101 0.505127
0 0 0
0.0189635 0.1289 0.516268
0.0213816 0.12897 0.516505
0.0239774 0.129989 0.520537
0.026413 0.130032 0.520656
0.0288075 0.129883 0.519998
0.0312488 0.129952 0.520206
0.0337172 0.130115 0.520787
0.0360501 0.129768 0.51932
0.0383144 0.129234 0.517098
0.0406183 0.128889 0.515626
0.0429347 0.128619 0.514451
0.0454185 0.128854 0.515284
0.0477371 0.128619 0.514235
0.0498864 0.127973 0.511533
0.0523071 0.12805 0.511716
0.0547161 0.128093 0.511754
0.0569467 0.127733 0.510173
0.059197 0.127443 0.508868
0.0614674 0.127218 0.507811
0.0637041 0.126942 0.506545
0.0659738 0.126749 0.505602
0.0682363 0.126557 0.504651
0.0690924 0.123856 0.493693
0.071244 0.123577 0.492384
0.073759 0.123927 0.493567
0.0777695 0.126691 0.504353
0.0810192 0.128089 0.509683
0.0834843 0.128203 0.509885
0.0877123 0.130941 0.520511
0.0942717 0.136917 0.543976
0.0971795 0.137415 0.545647
0.0996085 0.137227 0.544582
0.10238 0.137508 0.545365
0.104305 0.136666 0.541681
0.106762 0.136546 0.540844
0.109714 0.13705 0.542462
0.111997 0.136713 0.540739
0.114633 0.136813 0.540726
0.117432 0.137099 0.54143
0.120123 0.137248 0.541579
0.122783 0.137358 0.541552
0.124955 0.136928 0.539381
0.127108 0.136494 0.537177
0.129909 0.136761 0.537716
0.132356 0.136651 0.536751
0.134767 0.136509 0.535645
0.136731 0.135928 0.532799
0.139036 0.135701 0.531324
0.141781 0.135904 0.531512
0.144123 0.135719 0.530166
0.146999 0.136036 0.530756
0.150096 0.136544 0.532066
0.152605 0.136508 0.531235
0.15481 0.136205 0.529349
0.157188 0.136062 0.528062
0.159385 0.13577 0.526177
0.162008 0.135844 0.525693
0.164565 0.135861 0.524969
0.167162 0.13591 0.524346
0.169962 0.136121 0.524326
0.172762 0.136325 0.524256
0.174961 0.136056 0.52235
0.177444 0.136012 0.521295
0 0 0
0 0 0
0 0 0
0 0 0
0.346908 0.248152 0.942568
0.356366 0.251558 0.953712
0.372426 0.259475 0.981865
0.376918 0.259233 0.97908
0.380298 0.258242 0.973469
0.386423 0.259116 0.974896
0.394309 0.261135 0.980619
0.401041 0.26235 0.983312
0.407882 0.263606 0.986166
0.413717 0.264189 0.986525
0.417827 0.26367 0.982805
0.421204 0.262706 0.977486
0.423058 0.260825 0.968832
0.421378 0.256833 0.952438
0.408736 0.246325 0.912039
0.413424 0.246378 0.910885
0.439486 0.259028 0.956325
0.44536 0.259633 0.957328
0.449483 0.259216 0.954671
0.451784 0.257767 0.948338
0.454295 0.256468 0.942689
0.454826 0.25409 0.933211
0.455702 0.251952 0.924758
0.457505 0.250364 0.918468
0.457037 0.247578 0.907927
0.458067 0.245652 0.900678
0.459349 0.243898 0.894201
0.460686 0.242207 0.888091
0.462107 0.240592 0.882396
0.462843 0.238656 0.87565
0.461695 0.235794 0.865632
0.463044 0.23425 0.86057
0.465545 0.233311 0.857851
0.463341 0.230054 0.846715
0.46276 0.227655 0.838833
0.45844 0.223478 0.82448
0.458457 0.22147 0.818212
0.443978 0.212559 0.78648
0.443508 0.210453 0.779961
0.443748 0.208718 0.774884
0.443505 0.206788 0.769146
0.444157 0.205305 0.76513
0.443596 0.203291 0.75919
0.446024 0.202669 0.758503
0.450605 0.203029 0.761559
0.460262 0.20565 0.773191
-0.378588 0.200322 0.72145
-0.36821 0.196739 0.708283
-0.366247 0.197625 0.711318
-0.361977 0.197272 0.709999
-0.356372 0.196176 0.706117
-0.353378 0.196511 0.707487
-0.349732 0.196486 0.70767
-0.343921 0.195232 0.703524
-0.340508 0.195326 0.704339
-0.336807 0.195256 0.704656
-0.332658 0.194922 0.704113
-0.327108 0.19375 0.700627
-0.322366 0.193037 0.698874
-0.316768 0.19179 0.695258
-0.311795 0.190897 0.692986
-0.306763 0.189948 0.690565
-0.303025 0.189786 0.691061
-0.299189 0.18956 0.691371
-0.294324 0.188669 0.689292
-0.288769 0.187308 0.685526
-0.283105 0.185843 0.681391
-0.279294 0.185574 0.681655
-0.275611 0.185385 0.68223
-0.271698 0.185033 0.68222
-0.266998 0.184131 0.68018
-0.262692 0.18348 0.679065
-0.259585 0.183661 0.681025
-0.258974 0.185636 0.689651
-0.257317 0.186904 0.695665
-0.256388 0.188741 0.703813
-0.254082 0.189602 0.708323
-0.251772 0.190484 0.712907
-0.250892 0.192487 0.721691
-0.248304 0.193218 0.725705
-0.245788 0.194027 0.729997
-0.243585 0.195111 0.735314
-0.241692 0.196479 0.741692
-0.239225 0.197415 0.746424
-0.23585 0.197618 0.748368
-0.231806 0.197259 0.748151
-0.224509 0.194076 0.737179
0 0 0
-0.191903 0.171319 0.652599
-0.188286 0.170885 0.65184
-0.185005 0.170748 0.65218
-0.181133 0.17005 0.650351
-0.177102 0.169177 0.647816
-0.173796 0.168977 0.647832
-0.170076 0.168361 0.646223
-0.166195 0.167558 0.643869
-0.163032 0.167463 0.644205
-0.158962 0.166416 0.64085
-0.155461 0.165935 0.639646
-0.152238 0.165737 0.639508
-0.148942 0.16545 0.639003
-0.145856 0.165388 0.639346
-0.141665 0.164045 0.634708
-0.139192 0.164676 0.637687
-0.135419 0.163764 0.634666
-0.130974 0.161978 0.628233
-0.128001 0.161973 0.628683
-0.12514 0.162111 0.629672
-0.12197 0.161848 0.629081
-0.11882 0.161598 0.628524
-0.115524 0.161132 0.62711
-0.112331 0.160788 0.62615
-0.109195 0.16051 0.625431
-0.105904 0.159983 0.623722
-0.102073 0.158585 0.618602
-0.0989396 0.158222 0.617498
-0.0957087 0.157677 0.615667
-0.0932891 0.158476 0.619071
-0.0898356 0.157513 0.615581
-0.0867409 0.157136 0.614366
-0.0837427 0.156914 0.613744
-0.0807631 0.156713 0.613188
-0.0777651 0.15646 0.612418
-0.0745988 0.155835 0.610183
-0.0717965 0.155952 0.610837
-0.06852 0.155006 0.607317
-0.0656676 0.154978 0.607385
-0.0627219 0.154718 0.606533
-0.0597652 0.154405 0.605462
-0.0567694 0.153955 0.603843
-0.0538558 0.153693 0.602951
-0.050618 0.152425 0.598104
-0.0477054 0.152046 0.596735
-0.0448382 0.151772 0.595774
-0.0419539 0.151402 0.594421
0 0 0
-0.0299765 0.124669 0.489617
-0.0275511 0.124036 0.487197
-0.0252934 0.124112 0.487557
-0.0230438 0.124247 0.488142
-0.0207841 0.124352 0.488601
-0.0185356 0.124557 0.48945
-0.0162881 0.124827 0.49055
-0.0139956 0.124784 0.490417
-0.0117242 0.124949 0.491095
-0.00943571 0.124969 0.491197
-0.00715611 0.125157 0.491953
-0.00486439 0.12521 0.492175
-0.00257086 0.12527 0.492416
-0.000277114 0.126225 0.496174
0.00202665 0.125631 0.493836
0.0043254 0.125523 0.493407
0.00661431 0.125304 0.492533
0.00890223 0.125184 0.492044
0.0112416 0.125687 0.494002
0.0136264 0.126443 0.496942
0.0166187 0.131795 0.517945
0.0190992 0.132246 0.519677
0.0214798 0.131981 0.518591
0.023931 0.13216 0.519241
0.0262796 0.131791 0.517735
0.0286549 0.131607 0.516951
0.0309817 0.131246 0.515465
0.0334316 0.131421 0.516077
0.035717 0.130969 0.514222
0.0381208 0.130982 0.514182
0.0403285 0.130358 0.511641
0.0427705 0.13052 0.512175
0.0452343 0.130727 0.51288
0.0474896 0.130341 0.511252
0.0497674 0.130051 0.509993
0.0520321 0.129755 0.508702
0.0541852 0.129219 0.506462
0.0565571 0.129227 0.50635
0.0589964 0.129383 0.506807
0.0613509 0.129347 0.506507
0.0635787 0.129057 0.505201
0.0658997 0.128971 0.504683
0.0682645 0.128973 0.504502
0.0703205 0.128411 0.502106
0.0722369 0.127639 0.498881
0.0753136 0.128901 0.503595
0.0784085 0.130117 0.508112
0.0810249 0.13049 0.509326
0.0836688 0.130885 0.510611
0.0859066 0.13064 0.509389
0.0947915 0.140243 0.546532
0.0974873 0.140423 0.546923
0.100442 0.140959 0.548678
0.102969 0.140882 0.548035
0.105245 0.140473 0.546088
0.107859 0.140525 0.545917
0.110423 0.14051 0.545474
0.112557 0.139962 0.542942
0.115229 0.140091 0.543026
0.117846 0.14015 0.542821
0.120403 0.140137 0.542315
0.123056 0.140233 0.542216
0.125685 0.140299 0.541983
0.127943 0.139956 0.540156
0.130588 0.140042 0.539965
0.132846 0.139717 0.53817
0.134928 0.139223 0.535708
0.137062 0.138801 0.533504
0.1394 0.138596 0.532124
0.1419 0.138557 0.531356
0.144742 0.138847 0.531834
0.148016 0.139535 0.533807
0.150555 0.139518 0.533062
0.153123 0.139528 0.5324
0.155884 0.139711 0.532372
0.157954 0.139278 0.529981
0.160182 0.138996 0.528148
0.163765 0.139881 0.530725
0.165531 0.13921 0.527376
0.168181 0.139292 0.526863
0.171065 0.139562 0.52704
0.173874 0.139764 0.526939
0.175983 0.139405 0.524705
0.177991 0.138979 0.522205
0 0 0
0 0 0
0 0 0
0.336615 0.248605 0.927452
0.345806 0.251982 0.938308
0.359886 0.258786 0.961842
0.367412 0.260761 0.967355
0.376212 0.263579 0.975955
0.381978 0.264225 0.976492
0.388767 0.265555 0.979548
0.395716 0.266959 0.982872
0.403047 0.268585 0.987009
0.408663 0.269041 0.986865
0.414004 0.269308 0.986056
0.41832 0.268909 0.982857
0.418568 0.265936 0.970322
0.419134 0.26323 0.95886
0 0 0
0.41091 0.252259 0.916057
0.434238 0.263613 0.955936
0.444439 0.266838 0.966354
0.446415 0.265107 0.958923
0.449691 0.264177 0.954515
0.449748 0.261396 0.94355
0.452168 0.260033 0.937839
0.453748 0.25822 0.930643
0.454803 0.256149 0.922658
0.456206 0.254314 0.915664
0.456157 0.251715 0.906061
0.457125 0.249723 0.898783
0.459557 0.248564 0.894637
0.461469 0.247148 0.889704
0.461411 0.244715 0.881239
0.462851 0.243115 0.875902
0.463968 0.241378 0.870193
0.462684 0.238437 0.860258
0.462568 0.236147 0.852778
0.460922 0.233125 0.842756
0.4597 0.230372 0.833795
0 0 0
0.44091 0.21697 0.787463
0.44054 0.21485 0.780992
0.439363 0.212378 0.773306
0.439476 0.210567 0.768089
0.440963 0.209441 0.765433
0.441683 0.207972 0.761589
0.442409 0.206532 0.757904
0.443667 0.205362 0.755264
0.448511 0.205858 0.758815
0 0 0
-0.373025 0.200996 0.711034
-0.371664 0.202224 0.715056
-0.367359 0.201858 0.71355
-0.363181 0.201555 0.712374
-0.359093 0.201297 0.711462
-0.354448 0.200719 0.709524
-0.351012 0.200819 0.710092
-0.346647 0.200385 0.708872
-0.34204 0.199801 0.707221
-0.337912 0.199487 0.706623
-0.334219 0.199426 0.707013
-0.32908 0.198491 0.704393
-0.32368 0.197376 0.701213
-0.318366 0.19629 0.698205
-0.314031 0.195789 0.697349
-0.309447 0.195121 0.695955
-0.304351 0.19411 0.693394
-0.29987 0.193474 0.692215
-0.29554 0.19292 0.691376
-0.290385 0.191809 0.688569
-0.286255 0.191355 0.68815
-0.281648 0.190568 0.686556
-0.277288 0.189931 0.685514
-0.272638 0.189077 0.683699
-0.267761 0.188042 0.68123
-0.263691 0.187554 0.68074
-0.260231 0.187493 0.681802
-0.259437 0.189376 0.689944
-0.257199 0.190242 0.694395
-0.256755 0.192476 0.703854
-0.254295 0.193239 0.707941
-0.252461 0.194505 0.713875
-0.249761 0.19513 0.717451
-0.248397 0.196832 0.724983
-0.245766 0.197565 0.72894
-0.243228 0.198395 0.733244
-0.242247 0.200539 0.742398
-0.239807 0.201521 0.747244
-0.236762 0.202018 0.750273
-0.233167 0.202054 0.751565
-0.22664 0.199509 0.743218
0 0 0
-0.192513 0.175013 0.65385
-0.189135 0.174801 0.653965
-0.18608 0.174887 0.655164
-0.182436 0.174413 0.65424
-0.178464 0.173602 0.652022
-0.174298 0.172571 0.648942
-0.17105 0.172428 0.649173
-0.16708 0.171538 0.646563
-0.163831 0.171368 0.646638
-0.159526 0.170067 0.642416
-0.156225 0.169806 0.642092
-0.15335 0.170006 0.64349
-0.14967 0.169305 0.641452
-0.146124 0.168729 0.639863
-0.143108 0.168754 0.640527
-0.139455 0.168011 0.638255
-0.135933 0.167398 0.636453
-0.132596 0.16699 0.635405
-0.128965 0.166184 0.63282
-0.125791 0.165941 0.632362
-0.122641 0.165721 0.631966
-0.119387 0.165345 0.630958
-0.115832 0.164521 0.628222
-0.112582 0.1641 0.627004
-0.109469 0.163861 0.626464
-0.106376 0.16364 0.625974
-0.103145 0.163188 0.624584
-0.100032 0.162901 0.623812
-0.0972286 0.163116 0.624946
-0.0936502 0.162005 0.620981
-0.0906542 0.161861 0.620712
-0.0875824 0.161568 0.619856
-0.0839735 0.16023 0.614976
-0.0809685 0.159991 0.614297
-0.0781666 0.16015 0.615134
-0.0750824 0.15972 0.613701
-0.0720528 0.159377 0.612588
-0.0690788 0.159134 0.611846
-0.0660453 0.158727 0.610463
-0.063122 0.158559 0.609991
-0.0599649 0.157761 0.607082
-0.0569597 0.157302 0.60547
-0.054024 0.156998 0.604442
-0.0512094 0.157032 0.604706
-0.0482262 0.156522 0.602868
-0.0451011 0.15546 0.598892
-0.0419851 0.154291 0.594496
0 0 0
-0.0305337 0.129314 0.498415
-0.027712 0.127047 0.489748
-0.0253968 0.126904 0.489258
-0.0230704 0.12667 0.488415
-0.0208308 0.126915 0.489411
-0.0185724 0.127091 0.490135
-0.0163047 0.127244 0.490765
-0.0140299 0.127382 0.491333
-0.0118039 0.128104 0.494148
-0.00950845 0.128241 0.494699
-0.00716366 0.127585 0.49219
-0.00487423 0.127763 0.492889
-0.00259066 0.128548 0.495927
-0.0002757 0.127883 0.493362
0.00202505 0.127832 0.493166
0.00433079 0.127983 0.49374
0.006598 0.127286 0.491037
0.00890618 0.127534 0.49198
0.0112018 0.127538 0.491971
0.0135701 0.128227 0.494601
0.0166093 0.134134 0.517351
0.0190202 0.134112 0.517224
0.0214408 0.134156 0.517344
0.0238018 0.133855 0.516132
0.0261671 0.133632 0.515213
0.0285559 0.133556 0.514856
0.0309629 0.13357 0.51484
0.0332716 0.133189 0.513293
0.0356521 0.133127 0.512972
0.0380511 0.133138 0.512922
0.0402794 0.132586 0.510696
0.0426511 0.132541 0.510419
0.0450326 0.132529 0.510264
0.0472864 0.132162 0.508732
0.0496247 0.132055 0.508194
0.0518633 0.131704 0.506711
0.0541636 0.131534 0.505916
0.0565025 0.131468 0.505513
0.0587732 0.131255 0.504536
0.0611383 0.131261 0.504393
0.0635416 0.131346 0.504543
0.0657694 0.131075 0.503317
0.0680203 0.130867 0.502324
0.0702824 0.130694 0.501456
0.07273 0.130865 0.5019
0.0752282 0.131114 0.502631
0.0778672 0.131587 0.504204
0.0807484 0.132428 0.507178
0.0832893 0.132679 0.507878
0.0860813 0.133305 0.509999
0 0 0
0.0978339 0.143506 0.548394
0.100625 0.143803 0.549193
0.103161 0.143731 0.548568
0.105601 0.143531 0.547437
0.108124 0.143452 0.546754
0.110988 0.143817 0.547746
0.113764 0.144055 0.548238
0.116267 0.143944 0.547386
0.118148 0.143084 0.543671
0.120792 0.143166 0.543518
0.123687 0.143535 0.544438
0.126231 0.143491 0.543773
0.128611 0.143265 0.542398
0.131261 0.143343 0.542159
0.133371 0.142841 0.539706
0.136949 0.143899 0.543127
0.139837 0.144206 0.543688
0.142325 0.144097 0.542663
0.144625 0.143806 0.540931
0.146044 0.142664 0.535981
0.148296 0.142361 0.534175
0.151047 0.142539 0.534151
0.153788 0.142703 0.534051
0.156418 0.142758 0.533525
0.158769 0.142563 0.532041
0.161891 0.143054 0.533097
0.164656 0.14322 0.532918
0.16658 0.14266 0.530022
0.170067 0.143435 0.532063
0.17237 0.143204 0.530351
0.174465 0.14281 0.528018
0.176657 0.142504 0.526002
0.179559 0.142772 0.526085
0 0 0
0 0 0
0 0 0
0.336555 0.253116 0.926013
0.345703 0.256524 0.936746
0.363356 0.26607 0.969793
0.371423 0.268439 0.976594
0.376535 0.26864 0.975487
0.382606 0.26951 0.976809
0.391114 0.272054 0.984185
0.396717 0.272539 0.984108
0.402818 0.273352 0.985227
0.409736 0.274691 0.988268
0.415228 0.275055 0.987824
0.417621 0.27338 0.980121
0 0 0
0 0 0
0.410096 0.25929 0.92516
0.431182 0.269555 0.960399
0.441049 0.272656 0.970139
0.44534 0.272279 0.967591
0.448401 0.271167 0.962547
0.447562 0.267745 0.949436
0.447672 0.264958 0.938718
0.450296 0.263702 0.933559
0.45271 0.262351 0.928198
0.452485 0.259514 0.91772
0.453584 0.257486 0.910246
0.453992 0.255112 0.901684
0.456965 0.254211 0.898468
0.45968 0.253187 0.894948
0.460691 0.251253 0.888346
0.461515 0.249256 0.881648
0.462812 0.24755 0.876104
0.463331 0.245465 0.869337
0.462264 0.242587 0.859871
0 0 0
0 0 0
0 0 0
0.436313 0.220633 0.785764
0.437999 0.219488 0.78286
0.439185 0.218115 0.779223
0.437005 0.21511 0.769818
0.438059 0.213735 0.766304
0.439639 0.212639 0.763857
0.441523 0.211707 0.762063
0 0 0
0.442912 0.20877 0.754771
0 0 0
0 0 0
-0.371205 0.203615 0.707779
-0.372764 0.206473 0.717336
-0.369741 0.206823 0.718281
-0.36402 0.205657 0.714066
-0.359722 0.205279 0.712695
-0.35655 0.205543 0.713657
-0.352291 0.205179 0.712545
-0.347528 0.20451 0.710478
-0.342103 0.203434 0.707095
-0.339004 0.203733 0.708589
-0.33527 0.203653 0.708858
-0.330624 0.203011 0.707264
-0.326258 0.202528 0.706308
-0.32083 0.201369 0.703068
-0.315068 0.199972 0.699064
-0.311002 0.199631 0.698816
-0.306239 0.19883 0.697016
-0.300884 0.197621 0.693836
-0.296503 0.197032 0.692871
-0.292465 0.196659 0.692709
-0.287017 0.195318 0.689165
-0.283191 0.195061 0.689471
-0.278863 0.194448 0.688539
-0.275039 0.194175 0.688828
-0.268338 0.191838 0.681795
-0.264613 0.191597 0.682204
-0.261528 0.191818 0.684266
-0.259752 0.193018 0.689832
-0.257417 0.19383 0.694022
-0.256949 0.196088 0.703405
-0.254903 0.197187 0.708642
-0.252096 0.19772 0.711846
-0.251078 0.19969 0.720228
-0.248082 0.200121 0.723055
-0.24548 0.200887 0.727081
-0.245265 0.203658 0.738363
-0.242888 0.204688 0.743338
-0.240665 0.205883 0.748897
-0.237323 0.206141 0.751033
-0.233763 0.206216 0.752478
-0.228864 0.205093 0.749517
-0.222142 0.202273 0.740308
0 0 0
-0.190183 0.178933 0.656748
-0.187001 0.178916 0.657578
-0.183587 0.178672 0.657548
-0.179738 0.177988 0.65587
-0.175513 0.176902 0.652676
-0.171539 0.176032 0.650251
-0.16817 0.175764 0.650014
-0.16443 0.175091 0.648254
-0.161188 0.174932 0.648371
-0.157929 0.174748 0.64837
-0.154091 0.173902 0.645886
-0.150803 0.173657 0.645606
-0.146547 0.172263 0.641028
-0.143331 0.172058 0.64085
-0.140602 0.172442 0.642842
-0.136446 0.171054 0.638204
-0.13326 0.170846 0.637947
-0.129877 0.17037 0.636667
-0.126468 0.169837 0.635151
-0.123451 0.169817 0.635532
-0.120126 0.169363 0.634271
-0.116355 0.168239 0.630481
-0.113046 0.167742 0.629019
-0.109719 0.167191 0.627335
-0.10673 0.16714 0.62751
-0.103052 0.165975 0.623484
-0.1003 0.166277 0.624951
-0.0974907 0.1665 0.626109
-0.0942321 0.165945 0.624327
-0.0910686 0.165527 0.623046
-0.0878449 0.164969 0.62122
-0.0849171 0.164947 0.6214
-0.0814682 0.163875 0.617611
-0.0785335 0.163797 0.617553
-0.0757649 0.164073 0.618816
-0.0722894 0.162778 0.614146
-0.0694594 0.162891 0.61477
-0.0663124 0.162237 0.612491
-0.0633035 0.161877 0.611312
-0.0602485 0.16136 0.609527
-0.0572211 0.160868 0.607829
-0.0543628 0.160826 0.607819
-0.0513858 0.160409 0.60638
-0.0484578 0.160104 0.605359
-0.045363 0.159177 0.601973
-0.0421298 0.157609 0.596156
-0.0391825 0.156965 0.59382
0 0 0
-0.0278489 0.129973 0.491855
-0.0254309 0.129361 0.489606
-0.0231697 0.129505 0.490212
-0.021037 0.130478 0.493948
-0.0186665 0.130034 0.492314
-0.0164245 0.130486 0.494067
-0.0140966 0.130291 0.493367
-0.0117997 0.130364 0.493674
-0.00950327 0.130478 0.494129
-0.00719075 0.130373 0.493752
-0.00488984 0.130479 0.494168
-0.00258099 0.130373 0.493776
-0.000275083 0.129893 0.491961
0.00201996 0.129806 0.491629
0.00431006 0.129663 0.491079
0.00658784 0.129377 0.489984
0.0088871 0.129552 0.490627
0.0112154 0.129992 0.492271
0.0135125 0.129981 0.4922
0.0164947 0.135607 0.513468
0.018963 0.136116 0.515351
0.0212718 0.135494 0.512949
0.023724 0.135819 0.514125
0.0260572 0.135465 0.512725
0.0283665 0.135058 0.511115
0.0307199 0.134907 0.510472
0.0330737 0.13478 0.509911
0.0354042 0.134581 0.509072
0.037795 0.134622 0.509135
0.0403007 0.135043 0.510627
0.0426254 0.134845 0.509769
0.0448635 0.134408 0.508002
0.0471528 0.134161 0.506946
0.0494486 0.133954 0.506038
0.0517876 0.133879 0.505616
0.0541009 0.133747 0.50497
0.0564574 0.133728 0.504743
0.0584608 0.132907 0.501486
0.0610004 0.133322 0.50288
0.0634202 0.133454 0.503198
0.065637 0.133165 0.501918
0.0678964 0.132979 0.501018
0.070244 0.132973 0.500785
0.0726108 0.133002 0.500675
0.0751935 0.133413 0.50199
0.0780631 0.134292 0.505053
0.080452 0.134316 0.504891
0.0832571 0.135014 0.507247
0.0854961 0.134781 0.50609
0.0885956 0.13588 0.509923
0.0982222 0.146668 0.550075
0.100849 0.146718 0.549915
0.103502 0.146801 0.549864
0.106254 0.147018 0.5503
0.108751 0.14688 0.549393
0.111231 0.146727 0.548411
0.114088 0.147065 0.549253
0.116871 0.147296 0.549673
0.119352 0.147144 0.548645
0.121704 0.146843 0.547047
0.124326 0.146873 0.546669
0.12685 0.146789 0.545845
0.129161 0.146467 0.544119
0.131687 0.146397 0.543311
0.135233 0.147441 0.546617
0.140861 0.150673 0.557997
0.139819 0.146783 0.542984
0.142186 0.146548 0.54149
0 0 0
0.1478 0.146977 0.541761
0.148609 0.145229 0.534636
0.151422 0.145465 0.534805
0.15429 0.145745 0.53511
0.156661 0.145553 0.533665
0.159531 0.145824 0.533894
0.162385 0.146073 0.534018
0.164918 0.146029 0.533053
0.167823 0.146311 0.533257
0.17037 0.146277 0.532287
0.172832 0.146172 0.531042
0.175548 0.146282 0.530561
0.177543 0.145796 0.527904
0.180566 0.146157 0.5283
0 0 0
0 0 0
0 0 0
0.338755 0.259355 0.930766
0.346644 0.261851 0.937991
0.36453 0.271733 0.971585
0.372338 0.273943 0.977664
0.377807 0.274398 0.977464
0.381882 0.273841 0.973667
0.390818 0.276741 0.982161
0.397465 0.277968 0.984711
0.403286 0.278594 0.985153
0.409976 0.279799 0.987662
0.413249 0.27867 0.981982
0 0 0
0.403949 0.266055 0.934454
0 0 0
0.433138 0.278788 0.976237
0.438284 0.278925 0.975379
0.442001 0.278162 0.971467
0.445271 0.277136 0.966753
0.44314 0.272808 0.950652
0.44642 0.271868 0.946492
0.44679 0.269195 0.936429
0.449084 0.267726 0.93069
0.451964 0.266632 0.926394
0.450594 0.263081 0.913693
0.452618 0.261562 0.908195
0.454508 0.259998 0.902673
0.456342 0.258434 0.897284
0.458051 0.25683 0.891891
0.459688 0.255218 0.886596
0.460681 0.253284 0.880308
0.46059 0.250795 0.872213
0.459164 0.247635 0.861892
0.454131 0.242607 0.845167
0 0 0
0.426434 0.223588 0.780651
0.428996 0.222865 0.779149
0.432718 0.222753 0.779874
0.436017 0.222427 0.779944
0.435285 0.220069 0.772961
0.43767 0.219314 0.771681
0.437801 0.217454 0.766575
0.439679 0.216486 0.764676
0.441445 0.215479 0.762705
0 0 0
0 0 0
0 0 0
0.481183 0.227039 0.811028
-0.376559 0.210203 0.718239
-0.373634 0.210613 0.719208
-0.370814 0.21109 0.720506
-0.366178 0.210534 0.718382
-0.361631 0.210017 0.716498
-0.357207 0.209562 0.714931
-0.353157 0.209319 0.714194
-0.349186 0.209119 0.713704
-0.344471 0.208464 0.711763
-0.340389 0.208182 0.711195
-0.336301 0.207891 0.71069
-0.332528 0.20779 0.71093
-0.327942 0.207173 0.709491
-0.323328 0.206525 0.708023
-0.317444 0.205042 0.703766
-0.313471 0.204773 0.703743
-0.307658 0.203283 0.699582
-0.302973 0.202511 0.697945
-0.298511 0.201874 0.696817
-0.293152 0.200606 0.693553
-0.289123 0.200229 0.693404
-0.28491 0.199714 0.692809
-0.280667 0.199165 0.692118
-0.276018 0.198311 0.690383
-0.271707 0.197681 0.689439
-0.265236 0.195443 0.682886
-0.262343 0.195818 0.685457
-0.260245 0.196804 0.690182
-0.258469 0.198063 0.69588
-0.256893 0.199511 0.702257
-0.255536 0.201171 0.709394
-0.252869 0.201832 0.713012
-0.250695 0.20291 0.718103
-0.24855 0.204043 0.723388
-0.246142 0.204989 0.728006
-0.244295 0.206439 0.734405
-0.24356 0.208883 0.744348
-0.240921 0.209745 0.748646
-0.237778 0.210188 0.751431
-0.234267 0.210314 0.753062
-0.231098 0.210756 0.755804
-0.224812 0.208324 0.748198
0 0 0
-0.192636 0.184446 0.664343
-0.187969 0.183022 0.660122
-0.185069 0.183299 0.662006
-0.181563 0.182974 0.661691
-0.177289 0.18185 0.658455
-0.173334 0.18102 0.656247
-0.16932 0.180094 0.653664
-0.165681 0.179542 0.652404
-0.162031 0.178955 0.650992
-0.158773 0.178787 0.651076
-0.155278 0.17834 0.650118
-0.151127 0.177106 0.646264
-0.147932 0.176965 0.64637
-0.144135 0.176082 0.643739
-0.140595 0.175482 0.642119
-0.137514 0.175441 0.642521
-0.134022 0.174861 0.640928
-0.130829 0.174653 0.640677
-0.127285 0.173956 0.638609
-0.124035 0.173638 0.637911
-0.120941 0.173526 0.63795
-0.117593 0.173035 0.63658
-0.11465 0.173129 0.637341
-0.110145 0.170808 0.629188
-0.107151 0.170765 0.629406
-0.104248 0.170869 0.630152
-0.101182 0.170704 0.629888
-0.0974685 0.169405 0.625421
-0.0946425 0.169614 0.626509
-0.0914583 0.169175 0.625184
-0.0882782 0.168714 0.623765
-0.0851682 0.16836 0.622727
-0.0820456 0.167955 0.621486
-0.0789314 0.167538 0.620187
-0.0759455 0.167371 0.619804
-0.0729123 0.167084 0.618959
-0.0697274 0.16641 0.61667
-0.066645 0.165933 0.615099
-0.0634498 0.165119 0.612269
-0.0604681 0.164811 0.611298
-0.057589 0.164765 0.611293
-0.0546613 0.164568 0.610717
-0.0517038 0.164255 0.609699
-0.0486649 0.163631 0.607519
-0.045533 0.162598 0.603809
-0.0426552 0.162396 0.603174
-0.0392783 0.16013 0.594865
0 0 0
-0.0280068 0.13302 0.494311
-0.0255321 0.132172 0.491227
-0.0231221 0.131524 0.488881
-0.0210385 0.132794 0.493657
-0.0187805 0.133141 0.494998
-0.0164515 0.133011 0.494557
-0.0141204 0.132819 0.493881
-0.0118085 0.132768 0.493724
-0.00949741 0.132703 0.493507
-0.00717378 0.132365 0.49227
-0.00486804 0.132194 0.49165
-0.00256629 0.131922 0.49065
-0.000274514 0.131915 0.490628
0.00201782 0.131961 0.490794
0.00431053 0.131969 0.490818
0 0 0
0.00888532 0.131816 0.490214
0.0111918 0.132011 0.490918
0.0135147 0.1323 0.491962
0.0163927 0.137151 0.50996
0.0187988 0.137322 0.510553
0.0212396 0.13768 0.511835
0.023526 0.137066 0.509496
0.0259477 0.137281 0.510232
0.0283048 0.137147 0.509663
0.0306565 0.137009 0.509075
0.0330286 0.136975 0.508868
0.0352466 0.136351 0.506459
0.0375397 0.136076 0.505344
0.0401861 0.13704 0.508819
0.0425203 0.13689 0.508151
0.0445623 0.135866 0.504231
0.0469402 0.135917 0.504294
0.0493122 0.135947 0.504272
0.0513172 0.135008 0.50065
0.0535945 0.134837 0.499866
0.0558985 0.134745 0.499366
0.0582517 0.134773 0.499306
0.0609182 0.135497 0.50181
0.0631048 0.135138 0.500298
0.0653445 0.134915 0.499278
0.0676608 0.134861 0.498872
0.0701323 0.135109 0.499574
0.0725096 0.135165 0.499557
0.0748572 0.135164 0.499317
0.0778582 0.136307 0.503291
0.0803742 0.136559 0.503958
0.0828343 0.136704 0.504219
0.0854983 0.137167 0.505643
0.0895343 0.139748 0.51485
0.098551 0.149761 0.551397
0.10165 0.150497 0.553751
0.104574 0.150944 0.555024
0.107654 0.151588 0.556999
0.109876 0.151022 0.554518
0.111774 0.150049 0.550525
0.114629 0.150375 0.551285
0.117349 0.150512 0.551336
0.12021 0.150822 0.552
0.122453 0.150359 0.549818
0.124597 0.149796 0.547257
0.127493 0.150143 0.548
0.130155 0.150204 0.547684
0.132071 0.149419 0.544265
0.136349 0.151287 0.550483
0 0 0
0.139623 0.149168 0.541565
0.142322 0.149282 0.541343
0.150047 0.154568 0.559834
0.149494 0.151291 0.54728
0.14901 0.148195 0.535392
0.152101 0.1487 0.536505
0.155713 0.149689 0.539334
0.1584 0.149771 0.538873
0.160457 0.149265 0.536275
0.162718 0.14896 0.534388
0.16552 0.149154 0.534267
0.168581 0.14957 0.534924
0.171105 0.149506 0.53384
0.17336 0.149211 0.531918
0.175803 0.149085 0.530583
0.179155 0.149721 0.531943
0.184981 0.152378 0.540447
0 0 0
0 0 0
0 0 0
0 0 0
0.353396 0.271671 0.954918
0.360868 0.27376 0.960487
0.367631 0.275262 0.963977
0.373835 0.276314 0.965876
0.383765 0.280057 0.977166
0.390814 0.28163 0.98087
0.396425 0.282142 0.980888
0.403396 0.283597 0.984208
0.408484 0.283709 0.9829
0 0 0
0.39997 0.27125 0.936642
0.405169 0.271576 0.936312
0.430609 0.285306 0.982193
0.435186 0.285058 0.979972
0.438159 0.283776 0.974296
0.441585 0.282813 0.969823
0.440673 0.279123 0.956126
0.441992 0.276912 0.947626
0.444618 0.275558 0.94219
0.447688 0.274505 0.937913
0.447946 0.271768 0.928018
0.449194 0.269683 0.920484
0.450152 0.267469 0.912648
0.452929 0.266369 0.908748
0.454169 0.264398 0.902008
0.455217 0.262354 0.895155
0.456589 0.260537 0.889201
0.456126 0.257717 0.879952
0.45554 0.254885 0.870774
0 0 0
0 0 0
0.42472 0.230907 0.790866
0.420386 0.226412 0.776337
0.419762 0.223981 0.768957
0.423291 0.223789 0.769354
0.429634 0.225075 0.774928
0.43104 0.223776 0.77169
0.431934 0.222236 0.767695
0.43487 0.221764 0.767462
0.437736 0.221265 0.767212
0.438527 0.219736 0.76345
0.440452 0.218796 0.761793
0 0 0
0 0 0
0 0 0
0 0 0
-0.385626 0.219005 0.735829
-0.375015 0.215064 0.722099
-0.370324 0.214474 0.719731
-0.367132 0.214749 0.72037
-0.363174 0.214577 0.719614
-0.358162 0.213772 0.716838
-0.353925 0.213418 0.71568
-0.350262 0.213407 0.715773
-0.346234 0.21317 0.715213
-0.342102 0.212865 0.71452
-0.338246 0.212726 0.714484
-0.333744 0.212172 0.713149
-0.329561 0.211812 0.712553
-0.32405 0.210582 0.70911
-0.319738 0.210111 0.708301
-0.31418 0.208802 0.704736
-0.310018 0.208401 0.704297
-0.304804 0.207275 0.70147
-0.299989 0.206397 0.69953
-0.295594 0.205791 0.698556
-0.290962 0.205003 0.697003
-0.286744 0.204492 0.696424
-0.282194 0.203728 0.695011
-0.27715 0.202583 0.692318
-0.272948 0.202034 0.691671
-0.267108 0.200241 0.686772
-0.263068 0.19977 0.686404
-0.260317 0.200278 0.689407
-0.258741 0.201715 0.695624
-0.256741 0.202857 0.700837
-0.256002 0.20504 0.709666
-0.253318 0.205703 0.713246
-0.250762 0.206491 0.717256
-0.248624 0.20765 0.722555
-0.247052 0.209322 0.729642
-0.244515 0.210214 0.734005
-0.24351 0.212468 0.743125
-0.24119 0.213627 0.748411
-0.238003 0.214041 0.751074
-0.23561 0.215194 0.756313
-0.232302 0.215534 0.75868
-0.227119 0.214117 0.754828
-0.219239 0.21007 0.74165
0 0 0
-0.190788 0.188994 0.669125
-0.18591 0.18733 0.664134
-0.18221 0.186816 0.663181
-0.177848 0.185593 0.65968
-0.174172 0.185054 0.658579
-0.170225 0.184202 0.656333
-0.166695 0.183779 0.655584
-0.162765 0.182889 0.653144
-0.159295 0.182491 0.652431
-0.156638 0.183027 0.655034
-0.151772 0.180952 0.648266
-0.149253 0.181647 0.651392
-0.145297 0.180585 0.648196
-0.141694 0.179925 0.646415
-0.137851 0.178926 0.643389
-0.134612 0.178681 0.643052
-0.130411 0.177119 0.637951
-0.128294 0.178381 0.643
-0.124879 0.177855 0.641585
-0.121321 0.177095 0.639306
-0.117882 0.176474 0.637507
-0.114756 0.1763 0.637305
-0.111934 0.176598 0.638788
-0.108145 0.175344 0.634643
-0.104835 0.174816 0.633103
-0.101675 0.174516 0.632372
-0.0984875 0.17415 0.631385
-0.0950972 0.17339 0.628954
-0.0921392 0.173395 0.629282
-0.0890233 0.173093 0.628482
-0.0857393 0.172433 0.626365
-0.0823925 0.171595 0.623586
-0.0790948 0.170801 0.620952
-0.0761472 0.170731 0.620939
-0.0731602 0.170564 0.620558
-0.0699275 0.169787 0.617944
-0.0668742 0.169396 0.616726
-0.0638529 0.169055 0.615676
-0.0608174 0.168643 0.614355
-0.0578415 0.168362 0.613504
-0.0549903 0.168435 0.613929
-0.0520549 0.168243 0.61338
-0.0488439 0.167086 0.609302
-0.0457479 0.166204 0.606214
-0.0428593 0.166008 0.60562
-0.0397904 0.165036 0.602186
-0.0361399 0.16132 0.588729
0 0 0
-0.0257618 0.135678 0.495297
-0.0233895 0.135356 0.494189
-0.0211198 0.135623 0.495222
-0.018817 0.135717 0.495615
-0.0164481 0.135294 0.494115
-0.0141249 0.135169 0.493699
-0.0117945 0.134914 0.492802
-0.00946706 0.134576 0.491595
-0.00717911 0.134764 0.492302
-0.00486887 0.134513 0.4914
-0.00256994 0.134405 0.491016
-0.000274498 0.134199 0.490267
0.00201966 0.134375 0.490909
0.00431281 0.134333 0.490745
0.00660311 0.134262 0.490472
0.00889466 0.134246 0.490395
0.0111803 0.134166 0.490075
0.013486 0.134314 0.490584
0.0163298 0.138998 0.507653
0.0187306 0.139201 0.50835
0.0211054 0.139187 0.508248
0.0234018 0.138711 0.506453
0.0257378 0.138536 0.505749
0.0281652 0.138841 0.50679
0.0306024 0.139143 0.507815
0.0327075 0.138 0.50356
0.035059 0.137981 0.503398
0.0373761 0.137837 0.502774
0.0399491 0.138598 0.505444
0.0421387 0.138019 0.503216
0.0444098 0.137753 0.502126
0.0466005 0.137277 0.500263
0.0489192 0.137206 0.499868
0.0512221 0.137099 0.499333
0.0534985 0.136934 0.498577
0.0558517 0.13697 0.498549
0.0581068 0.136773 0.497661
0.0604344 0.136756 0.497416
0.0626697 0.136538 0.496435
0.0649431 0.136416 0.495793
0.0676067 0.137094 0.498047
0.0699911 0.137179 0.498136
0.0723785 0.137264 0.498214
0.0748989 0.137589 0.499149
0.0777876 0.138549 0.502378
0.0804523 0.139066 0.503983
0.0835504 0.140281 0.508102
0 0 0
0.096288 0.1529 0.553152
0.0991419 0.153276 0.55416
0.102675 0.154655 0.558777
0.105034 0.154242 0.556902
0.10792 0.154603 0.557805
0.110907 0.155089 0.559141
0.11334 0.154794 0.557647
0.115117 0.153639 0.553037
0.117887 0.153829 0.553259
0.120418 0.153707 0.55234
0.123016 0.153675 0.551725
0.125447 0.153438 0.550359
0.128056 0.153425 0.549778
0.130474 0.153188 0.548379
0.133056 0.153149 0.547668
0.135998 0.153518 0.548396
0.140032 0.155083 0.553369
0.141712 0.15403 0.548982
0.143321 0.152941 0.54445
0.146202 0.153223 0.544786
0.14724 0.151598 0.538327
0.15108 0.152864 0.542115
0.153386 0.152562 0.540317
0.156515 0.153074 0.54138
0.159088 0.153034 0.540472
0.1614 0.152749 0.53868
0.1644 0.153114 0.539159
0.167149 0.153238 0.538766
0.169276 0.152796 0.536369
0.171691 0.152623 0.534902
0.175399 0.153588 0.537402
0.17759 0.153216 0.535202
0.179841 0.152905 0.533208
0.187166 0.156856 0.546037
0 0 0
0 0 0
0 0 0
0 0 0
0.352068 0.275352 0.949979
0.359612 0.277545 0.955796
0.364162 0.277401 0.953557
0.374327 0.281483 0.965828
0.382392 0.283902 0.97237
0.389207 0.285345 0.975566
0.394684 0.285783 0.975345
0.399064 0.285425 0.972448
0.403035 0.284787 0.968648
0.393302 0.274597 0.932471
0.399529 0.275658 0.934612
0.425261 0.289996 0.981756
0.430873 0.29044 0.981874
0.434801 0.289753 0.978255
0.436822 0.287825 0.970551
0.439239 0.286197 0.963979
0.440925 0.284135 0.956066
0.441135 0.281176 0.945267
0.443828 0.279847 0.94008
0.446002 0.278222 0.934028
0.446908 0.275849 0.925599
0.448888 0.274181 0.919672
0.450773 0.272491 0.913803
0.450663 0.269641 0.904179
0.452705 0.268123 0.899152
0.451785 0.2649 0.888534
0 0 0
0.449204 0.258216 0.866862
0 0 0
0 0 0
0 0 0
0.420731 0.232712 0.783904
0.418793 0.229473 0.773906
0.416553 0.226129 0.763627
0.419005 0.225371 0.762155
0.426014 0.227056 0.769038
0.429181 0.226681 0.76904
0.430596 0.225395 0.766028
0.433223 0.224762 0.765302
0.434699 0.223547 0.762663
0.43664 0.222591 0.760967
0 0 0
0 0 0
0 0 0
0 0 0
0 0 0
-0.37922 0.219044 0.723932
-0.376258 0.219461 0.724763
-0.372191 0.219236 0.723574
-0.368358 0.219146 0.722931
-0.363822 0.21863 0.720991
-0.360368 0.218762 0.721287
-0.355839 0.218237 0.719522
-0.351295 0.217691 0.717792
-0.347081 0.217341 0.716807
-0.343161 0.217169 0.716511
-0.339021 0.216854 0.715836
-0.336169 0.217364 0.717985
-0.331779 0.216879 0.71694
-0.324937 0.214764 0.710586
-0.321714 0.215019 0.712153
-0.317841 0.214842 0.712365
-0.311125 0.212716 0.706184
-0.306916 0.212275 0.705651
-0.302234 0.211492 0.70404
-0.297026 0.210319 0.701176
-0.293589 0.210386 0.702489
-0.288657 0.209371 0.700229
-0.28465 0.20901 0.700187
-0.278957 0.207386 0.695935
-0.275584 0.207468 0.697425
-0.270049 0.205903 0.693393
-0.264573 0.204344 0.689374
-0.260709 0.204005 0.68947
-0.258489 0.204961 0.693955
-0.256538 0.206157 0.699271
-0.255011 0.207733 0.705888
-0.253135 0.209064 0.711687
-0.250623 0.2099 0.715803
-0.248769 0.211318 0.721911
-0.24746 0.213248 0.729768
-0.24509 0.214306 0.734648
-0.242771 0.215441 0.739783
-0.240632 0.216772 0.745588
-0.238943 0.218556 0.752948
-0.23648 0.219677 0.758011
