ply
format ascii 1.0
comment Generated by sampleExportPLY
element vertex 1789
property float x
property float y
property float z
element face 0
property list uchar int vertex_index
end_header
0.109456 -0.175215 0.647407
0 0 0
0 0 0
0 0 0
0.137826 -0.1985 0.731599
0.141853 -0.199301 0.734039
0.146407 -0.200788 0.738978
0.151239 -0.202579 0.745002
0.15448 -0.202204 0.743039
0.156965 -0.200879 0.737566
0.162318 -0.203201 0.745459
0.165512 -0.202781 0.74326
0.168943 -0.202661 0.742139
0.168538 -0.198039 0.724525
0 0 0
0.179369 -0.202482 0.739294
0.18235 -0.201879 0.736313
0.185376 -0.201348 0.733575
0.188946 -0.201416 0.732992
0.19246 -0.201424 0.732164
0.195061 -0.200493 0.7279
0.196616 -0.198538 0.719907
0.198722 -0.197198 0.714126
0.199731 -0.194833 0.70463
0.20245 -0.194188 0.701337
0.203642 -0.192122 0.692902
0.204374 -0.189697 0.683171
0.20478 -0.187051 0.672643
0.206468 -0.18564 0.666556
0.208865 -0.184901 0.662866
0.211247 -0.184171 0.659199
0.21194 -0.182013 0.65041
0.210897 -0.178449 0.636613
0.211113 -0.176038 0.626948
0.217887 -0.179087 0.636703
0.219509 -0.177875 0.631283
0.220199 -0.175951 0.623343
0.226129 -0.17821 0.63021
0.230068 -0.17886 0.631357
0.232751 -0.17853 0.629034
0.236243 -0.178821 0.628897
0.238757 -0.178373 0.626163
0.239717 -0.17679 0.619462
0.241825 -0.176084 0.615855
0.24568 -0.176651 0.616713
0.249197 -0.176965 0.616696
0.251454 -0.176387 0.613595
0.253676 -0.175798 0.61049
0.254766 -0.174449 0.604784
0.256829 -0.17379 0.601521
0.258819 -0.173097 0.598187
0.261973 -0.17319 0.597618
0.261067 -0.170627 0.587949
0.256682 -0.165873 0.57082
0.257718 -0.16469 0.566062
0.261906 -0.165525 0.568304
0.264887 -0.165586 0.567956
0.271151 -0.167677 0.574631
0.280398 -0.171549 0.587469
0.273475 -0.16555 0.566587
0.274263 -0.164295 0.562035
0.278159 -0.164909 0.563956
0.283776 -0.16652 0.569368
0.288776 -0.167741 0.573525
0.291978 -0.167903 0.574148
0.292677 -0.166636 0.56997
0.292585 -0.164948 0.564431
0.300993 -0.168039 0.575328
0.301538 -0.166723 0.57122
0.302649 -0.165742 0.568337
0.296559 -0.160873 0.552178
0.297266 -0.159748 0.548925
0.300817 -0.160157 0.551014
0.29628 -0.156293 0.538452
0.305595 -0.15974 0.551142
0.310575 -0.160879 0.555961
0.311945 -0.160144 0.554369
0.315387 -0.160477 0.556531
0.31689 -0.159826 0.555337
0 0 0
0 0 0
0 0 0
0 0 0
0 0 0
0 0 0
-0.479144 -0.26223 0.913549
-0.476117 -0.263125 0.916196
-0.472008 -0.263434 0.916932
0 0 0
0 0 0
-0.408186 -0.234779 0.817018
-0.401959 -0.233578 0.813021
-0.390884 -0.229506 0.799141
-0.384898 -0.228367 0.795584
-0.379438 -0.227519 0.793148
-0.37518 -0.227382 0.793293
-0.370699 -0.227105 0.793053
-0.364862 -0.225982 0.789951
-0.360541 -0.225784 0.790167
-0.356014 -0.22545 0.789996
-0.351308 -0.224995 0.789474
-0.348032 -0.225455 0.792237
-0.343156 -0.224878 0.79142
-0.339482 -0.225084 0.793416
-0.335106 -0.224824 0.79382
-0.33092 -0.224686 0.794701
-0.326611 -0.224461 0.795306
-0.32219 -0.224153 0.795644
-0.317857 -0.223898 0.796196
-0.314153 -0.224085 0.798336
-0.310354 -0.22421 0.800266
-0.306026 -0.22395 0.800831
-0.302859 -0.224544 0.804456
-0.300292 -0.225605 0.809761
-0.296689 -0.225905 0.812338
-0.293099 -0.226224 0.814976
-0.289516 -0.226557 0.817657
-0.285296 -0.226393 0.818529
-0.280869 -0.226059 0.818761
-0.276091 -0.225428 0.817892
-0.268293 -0.222277 0.807831
-0.263457 -0.221522 0.806432
0 0 0
0 0 0
-0.227406 -0.200156 0.732142
-0.223386 -0.199732 0.731701
-0.219632 -0.199538 0.732068
-0.215693 -0.199165 0.731753
-0.211407 -0.198454 0.730162
-0.207309 -0.197899 0.729108
-0.202313 -0.196453 0.724734
-0.199164 -0.196781 0.726872
-0.195659 -0.196762 0.727706
-0.191761 -0.196341 0.727018
-0.187931 -0.195975 0.726507
-0.18352 -0.194978 0.723624
-0.179533 -0.194402 0.722267
-0.175761 -0.19404 0.72168
-0.17256 -0.194307 0.723404
-0.168252 -0.193314 0.72041
-0.16472 -0.193189 0.720621
-0.161091 -0.192942 0.720355
-0.15742 -0.192634 0.719832
-0.153836 -0.192419 0.719635
-0.150724 -0.1928 0.721642
-0.147076 -0.192497 0.721069
-0.145097 -0.194415 0.728801
0 0 0
-0.146519 -0.206107 0.773718
-0.144645 -0.208673 0.783869
-0.140548 -0.20808 0.782138
-0.136395 -0.207373 0.779953
-0.132289 -0.206699 0.77787
-0.128164 -0.205955 0.775502
-0.124363 -0.205705 0.774973
-0.120849 -0.205928 0.776207
-0.116607 -0.204885 0.772651
-0.112906 -0.204758 0.77253
-0.10882 -0.203899 0.769632
-0.104898 -0.203301 0.767696
-0.101004 -0.202714 0.765787
-0.0971828 -0.202237 0.764278
-0.0926118 -0.200104 0.756488
-0.0891079 -0.200198 0.757103
-0.0859484 -0.201105 0.760782
-0.0820682 -0.200332 0.758091
-0.0783364 -0.199867 0.756553
-0.0746117 -0.199377 0.754907
-0.0709659 -0.19906 0.753901
-0.0673591 -0.198825 0.753194
-0.0637413 -0.19853 0.752247
-0.0600846 -0.198072 0.750673
-0.0565275 -0.197906 0.750193
-0.0529274 -0.197557 0.74901
-0.0492781 -0.196963 0.746884
-0.0457091 -0.196623 0.745713
-0.0420305 -0.195717 0.742385
-0.0384243 -0.195015 0.739822
-0.0343709 -0.19168 0.727258
-0.0303738 -0.187963 0.713232
-0.0269239 -0.187134 0.710155
-0.0236582 -0.187531 0.711721
-0.0205467 -0.189481 0.719175
-0.017376 -0.191538 0.727029
-0.0140437 -0.192382 0.730268
-0.0106612 -0.192859 0.732109
-0.00725566 -0.193171 0.733316
-0.00383036 -0.193046 0.732854
-0.000408878 -0.192635 0.731296
0.00300206 -0.192482 0.730716
0.00639976 -0.192095 0.729233
0.00979228 -0.191875 0.728379
0.0131846 -0.191765 0.727936
0.0165915 -0.19187 0.728297
0.0199098 -0.191087 0.725285
0.0232667 -0.19085 0.724333
0.0266099 -0.190574 0.723226
0.0298917 -0.18997 0.720866
0.0331661 -0.189446 0.718802
0.0365432 -0.189552 0.719118
0.0398135 -0.189132 0.717431
0.0430803 -0.188762 0.715925
0.0463818 -0.188586 0.715148
0.0493601 -0.187208 0.709804
0.0526985 -0.187284 0.70996
0.0560702 -0.187462 0.710495
0.0591226 -0.186612 0.707126
0.0623273 -0.186307 0.705813
0.0655684 -0.186137 0.704998
0.0686093 -0.185441 0.702185
0.0717506 -0.185068 0.700583
0.0736927 -0.18177 0.6879
0.0764497 -0.180674 0.683544
0.0793394 -0.179967 0.68065
0.0832304 -0.181498 0.686209
0.0872284 -0.18314 0.692169
0.0912076 -0.184626 0.697523
0.0944873 -0.184642 0.697308
0.0974705 -0.184097 0.69496
0.100403 -0.183496 0.692387
0.103039 -0.182405 0.687956
0.105664 -0.181364 0.683699
0.108323 -0.18044 0.679875
0.111907 -0.181066 0.681876
0.117272 -0.184458 0.694266
0.121073 -0.185272 0.696929
0.121838 -0.181521 0.682409
0 0 0
0 0 0
0 0 0
0 0 0
0 0 0
0.139391 -0.179277 0.671154
0 0 0
0.161034 -0.198085 0.740352
0.165903 -0.19972 0.74582
0.169257 -0.199503 0.744338
0.172333 -0.198973 0.741669
0.175509 -0.198577 0.739477
0.179015 -0.198563 0.738685
0.181617 -0.197567 0.734213
0.184539 -0.196949 0.731131
0.187887 -0.1968 0.729764
0.191088 -0.196506 0.727836
0.192583 -0.194499 0.719544
0.194873 -0.193352 0.714424
0.196488 -0.191586 0.706999
0.199286 -0.191014 0.703968
0.20206 -0.190438 0.7009
0.203661 -0.188795 0.693886
0.202535 -0.184717 0.677929
0.20335 -0.182511 0.668851
0.204448 -0.180624 0.660937
0.20773 -0.180694 0.660174
0.209412 -0.179392 0.654379
0.207529 -0.175121 0.637765
0.210928 -0.175368 0.637604
0.212443 -0.174063 0.631789
0.21658 -0.174913 0.633782
0.218436 -0.173923 0.62909
0.220334 -0.172994 0.624615
0.224975 -0.174214 0.627885
0.228471 -0.174526 0.627861
0.229484 -0.172959 0.621076
0.231802 -0.172404 0.617935
0.234455 -0.172109 0.615727
0.236914 -0.171681 0.613051
0.239521 -0.17137 0.610801
0.244571 -0.172792 0.61473
0.248596 -0.173465 0.615992
0.251983 -0.17368 0.615645
0.252751 -0.172108 0.608989
0.253116 -0.170301 0.601554
0.252972 -0.1682 0.593133
0.254868 -0.167487 0.589665
0.257053 -0.166978 0.586962
0.256644 -0.164816 0.578511
0.255362 -0.162147 0.568358
0.256998 -0.16137 0.564908
0.259709 -0.161278 0.56392
0.265363 -0.162996 0.569317
0.27049 -0.164356 0.573527
0.271669 -0.163314 0.569426
0.27596 -0.164146 0.571932
0.275043 -0.161894 0.563778
0.278499 -0.162236 0.56474
0.28442 -0.163992 0.570706
0.293092 -0.167284 0.582096
0.288108 -0.162792 0.566488
0.289238 -0.161811 0.563176
0.292407 -0.161978 0.563947
0.296048 -0.162401 0.56569
0.302105 -0.164128 0.572065
0.299684 -0.161261 0.562502
0.294034 -0.156726 0.547181
0.297008 -0.15683 0.548116
0.299136 -0.156489 0.547567
0.290908 -0.150787 0.528304
0.296168 -0.152117 0.533723
0.304597 -0.155035 0.544803
0.305469 -0.154089 0.542379
0.302086 -0.151033 0.532563
0.308199 -0.152736 0.539579
0.310024 -0.152303 0.539115
0 0 0
0 0 0
0 0 0
0 0 0
0 0 0
-0.473304 -0.254444 0.902146
-0.472765 -0.256643 0.909545
-0.468323 -0.256746 0.909646
0 0 0
-0.415026 -0.232118 0.822287
-0.406817 -0.229845 0.814367
-0.401035 -0.228912 0.81131
-0.390923 -0.225461 0.799446
-0.384806 -0.224267 0.795686
-0.379508 -0.223529 0.793653
-0.374626 -0.223023 0.792547
-0.369176 -0.222165 0.790283
-0.364327 -0.221652 0.789342
-0.359748 -0.221295 0.789039
-0.354346 -0.220418 0.786962
-0.350511 -0.220507 0.788403
-0.347037 -0.220827 0.790745
-0.342942 -0.220755 0.791747
-0.338432 -0.220412 0.791827
-0.334216 -0.220253 0.792616
-0.330121 -0.220172 0.793724
-0.325887 -0.219995 0.794519
-0.321585 -0.219767 0.795153
-0.31742 -0.219628 0.796129
-0.314051 -0.220044 0.799132
-0.310354 -0.220237 0.801341
-0.307323 -0.220914 0.805319
-0.304055 -0.221436 0.808742
-0.299719 -0.221184 0.809335
-0.296339 -0.22164 0.81251
-0.292102 -0.221459 0.813339
-0.287156 -0.220728 0.812126
-0.279679 -0.218003 0.803534
-0.271941 -0.214995 0.79384
-0.266344 -0.213617 0.790114
-0.260472 -0.211974 0.785366
0 0 0
-0.250946 -0.210399 0.782089
-0.24288 -0.206763 0.76979
-0.228678 -0.197709 0.73722
-0.223444 -0.196245 0.73286
-0.21985 -0.196196 0.733752
-0.21618 -0.196077 0.734352
-0.21197 -0.195457 0.73304
-0.208009 -0.195049 0.732491
-0.204209 -0.19478 0.732433
-0.199245 -0.193372 0.728059
-0.196245 -0.193855 0.730766
-0.192055 -0.193157 0.728998
-0.188268 -0.192848 0.728664
-0.184068 -0.192095 0.726619
-0.179944 -0.191395 0.724745
-0.176374 -0.191266 0.725005
-0.173072 -0.19143 0.72635
-0.169616 -0.191427 0.727035
-0.166294 -0.191578 0.72828
-0.164047 -0.193 0.734339
0 0 0
0 0 0
-0.162118 -0.2037 0.776969
-0.160797 -0.206726 0.789112
-0.157422 -0.207192 0.791469
-0.153478 -0.206913 0.79096
-0.148939 -0.2058 0.787233
-0.144815 -0.205217 0.785509
-0.140576 -0.204435 0.783001
-0.1364 -0.203705 0.780669
-0.132335 -0.203107 0.778817
-0.128124 -0.202242 0.775924
-0.124373 -0.202076 0.775687
-0.119826 -0.200566 0.770274
-0.11639 -0.200879 0.771841
-0.112068 -0.199636 0.76741
-0.108 -0.198776 0.764432
-0.104342 -0.198639 0.764217
-0.100899 -0.198915 0.765579
-0.0971903 -0.198669 0.764915
-0.0926509 -0.196641 0.757371
-0.0887635 -0.19589 0.75473
-0.0854641 -0.196428 0.757043
-0.0819197 -0.196426 0.757259
-0.0782444 -0.196095 0.756196
-0.0745497 -0.195682 0.754804
-0.0708498 -0.195213 0.753184
-0.0671331 -0.194647 0.751176
-0.063634 -0.194684 0.751484
-0.0599849 -0.194239 0.749923
-0.0563267 -0.193709 0.748018
-0.0527286 -0.193328 0.746681
-0.0492074 -0.193195 0.746291
-0.0455514 -0.192473 0.743615
-0.0419303 -0.19179 0.741082
-0.0378516 -0.188704 0.729252
-0.0340259 -0.186394 0.720408
-0.0304662 -0.185194 0.715846
-0.0271706 -0.185502 0.717101
-0.0238904 -0.186016 0.719147
-0.0205993 -0.186599 0.721452
-0.0173876 -0.188271 0.727958
-0.0140259 -0.188734 0.729787
-0.0106638 -0.189488 0.732729
-0.00726278 -0.189935 0.734477
-0.00381348 -0.18879 0.730063
-0.000408374 -0.188988 0.730834
0.00300265 -0.189109 0.731297
0.00640624 -0.188882 0.73041
0.00976105 -0.187874 0.726493
0.013146 -0.187816 0.726245
0.0164565 -0.186936 0.722806
0.0198307 -0.186956 0.722843
0.0232504 -0.187337 0.724266
0.0266111 -0.187205 0.723701
0.029759 -0.185776 0.718109
0.0327227 -0.183602 0.709635
0.035807 -0.182442 0.705071
0.0389932 -0.181953 0.703092
0.0425068 -0.182949 0.706844
0.0456803 -0.182443 0.704784
0.0489279 -0.182281 0.704044
0.0519965 -0.181515 0.700962
0.0554298 -0.182037 0.702844
0.0586355 -0.181795 0.701769
0.0615554 -0.18074 0.697543
0.064453 -0.179728 0.693478
0.0678102 -0.180034 0.694487
0.070553 -0.178755 0.689373
0.0734799 -0.178034 0.686401
0.0757393 -0.175824 0.677681
0.0788755 -0.175745 0.677165
0.0816929 -0.174989 0.674032
0.085916 -0.177188 0.682267
0.0899051 -0.178765 0.688087
0.0937033 -0.179866 0.692058
0.0973212 -0.180558 0.694442
0.100506 -0.180428 0.693647
0.10346 -0.179907 0.691333
0.106093 -0.178873 0.687039
0.108785 -0.177998 0.683346
0.112232 -0.178374 0.684436
0.117085 -0.1809 0.693758
0.12073 -0.181475 0.69557
0 0 0
0.116491 -0.166096 0.635862
0.119147 -0.165623 0.633647
0.120408 -0.163282 0.624272
0.123535 -0.163522 0.624757
0.127054 -0.164258 0.627114
0.135984 -0.171796 0.6554
0.136801 -0.168978 0.644142
0 0 0
0.165445 -0.19564 0.744539
0.169018 -0.195691 0.744073
0.171882 -0.194936 0.740526
0.175073 -0.194574 0.738448
0.178109 -0.194058 0.735766
0.180639 -0.193021 0.731085
0.183655 -0.192532 0.728464
0.186173 -0.191549 0.723952
0.188174 -0.19008 0.717584
0.189591 -0.188085 0.70922
0.19199 -0.187116 0.704713
0.194611 -0.186394 0.701113
0.196195 -0.18472 0.69392
0.200965 -0.186051 0.697989
0.199272 -0.181453 0.679808
0.2012 -0.180248 0.674339
0.200619 -0.176869 0.660736
0.200935 -0.174374 0.650445
0.205127 -0.175269 0.652779
0.202143 -0.170097 0.632524
0.205995 -0.170747 0.633918
0.207536 -0.16949 0.628215
0.206351 -0.166075 0.614522
0.21381 -0.169616 0.626546
0.217627 -0.170209 0.627636
0.220105 -0.169752 0.624837
0.221204 -0.168258 0.618222
0.21849 -0.163945 0.60127
0.220219 -0.163035 0.596828
0.227893 -0.166493 0.608351
0.230201 -0.165992 0.60538
0.23415 -0.166671 0.606715
0.237016 -0.166572 0.605213
0.239927 -0.166508 0.603844
0.24519 -0.168056 0.608325
0.239599 -0.162218 0.586112
0 0 0
0.246308 -0.162784 0.58605
0.247789 -0.161834 0.581623
0.2533 -0.163507 0.586652
0.255042 -0.162736 0.58295
0.252278 -0.159141 0.569198
0.254621 -0.158812 0.567197
0.257603 -0.158884 0.566686
0.261127 -0.159286 0.567404
0.265887 -0.160424 0.570805
0.269036 -0.160576 0.570762
0.270467 -0.159711 0.567174
0.268776 -0.15704 0.557259
0.274505 -0.158714 0.562844
0.277822 -0.158974 0.563489
0.282552 -0.160029 0.567033
0.288197 -0.161575 0.572399
0.288635 -0.1602 0.567503
0.283451 -0.155764 0.551843
0.288207 -0.156822 0.555734
0.291833 -0.157252 0.55748
0.29228 -0.155977 0.553263
0.291458 -0.154055 0.546828
0.289231 -0.151434 0.537974
0.292437 -0.15168 0.539376
0.296698 -0.152464 0.542765
0.294164 -0.149773 0.53385
0.293054 -0.14785 0.527718
0.295548 -0.147764 0.528198
0.298172 -0.147743 0.528975
0.299011 -0.146847 0.526672
0.30266 -0.147333 0.529386
0.302392 -0.145921 0.52533
0 0 0
0 0 0
0 0 0
0 0 0
0 0 0
-0.477017 -0.251814 0.908994
-0.469749 -0.250406 0.903584
-0.463622 -0.249584 0.90043
0 0 0
-0.408977 -0.224609 0.81036
-0.40436 -0.224336 0.809575
-0.39772 -0.222924 0.804798
-0.390274 -0.221027 0.798379
-0.38466 -0.220138 0.79571
-0.379904 -0.219726 0.794874
-0.373852 -0.218548 0.791365
-0.3699 -0.218585 0.792351
-0.364325 -0.217653 0.789915
-0.359715 -0.217283 0.789601
-0.354553 -0.216569 0.788108
-0.349998 -0.216213 0.787988
-0.346626 -0.216587 0.790599
-0.343007 -0.216814 0.792732
-0.338339 -0.216376 0.792485
-0.333833 -0.216032 0.792621
-0.329945 -0.216085 0.794248
-0.325927 -0.216054 0.795596
-0.321315 -0.215622 0.79549
-0.317916 -0.216004 0.798404
-0.314011 -0.216047 0.800081
-0.310467 -0.216343 0.8027
-0.307312 -0.216922 0.806378
-0.303574 -0.217098 0.80856
-0.298168 -0.21607 0.806247
-0.292003 -0.214458 0.801719
-0.286834 -0.213542 0.799767
0 0 0
-0.272055 -0.208236 0.782701
-0.266996 -0.207278 0.780468
-0.261303 -0.205793 0.77621
-0.255839 -0.204448 0.772437
-0.2496 -0.202433 0.766086
-0.244546 -0.201334 0.763152
-0.239886 -0.20053 0.7613
-0.233872 -0.198552 0.754942
-0.223968 -0.193156 0.735522
-0.220273 -0.193028 0.736096
-0.216562 -0.192881 0.736571
-0.212842 -0.19272 0.736965
-0.208182 -0.191689 0.733994
-0.204432 -0.191475 0.734117
-0.200531 -0.19111 0.733629
-0.196398 -0.190506 0.732191
-0.192261 -0.189877 0.730621
-0.188913 -0.190018 0.731986
-0.186609 -0.191234 0.737474
0 0 0
0 0 0
0 0 0
-0.183626 -0.203501 0.787908
-0.180279 -0.203943 0.790338
-0.178 -0.205639 0.797603
-0.174536 -0.206009 0.799708
-0.170081 -0.2052 0.797212
-0.16494 -0.203507 0.79125
-0.161334 -0.203674 0.79249
-0.157326 -0.203331 0.791719
-0.153089 -0.202666 0.789672
-0.148878 -0.202004 0.78761
-0.144678 -0.201324 0.785453
-0.140085 -0.200046 0.78094
-0.135216 -0.198294 0.774549
-0.13152 -0.198215 0.774667
-0.127996 -0.198395 0.775782
-0.124216 -0.19818 0.775333
-0.119311 -0.196101 0.767568
-0.1154 -0.195579 0.765875
-0.110941 -0.194064 0.760278
-0.106865 -0.193139 0.756968
-0.103195 -0.192912 0.756379
-0.0996993 -0.193005 0.75703
-0.0963281 -0.193355 0.758674
-0.0912942 -0.190266 0.746809
-0.0879885 -0.190677 0.748662
-0.0839092 -0.189376 0.74378
-0.0797345 -0.187737 0.737559
-0.0757939 -0.186527 0.733002
-0.0724348 -0.186701 0.733874
-0.0685147 -0.185374 0.728835
-0.0649828 -0.185013 0.727583
-0.0615736 -0.184982 0.727614
-0.0583078 -0.185403 0.729414
-0.054365 -0.18359 0.722414
-0.0508905 -0.183223 0.721095
-0.0474549 -0.182954 0.72015
-0.0439904 -0.182524 0.718563
-0.0405411 -0.182091 0.716958
-0.0370079 -0.18117 0.713419
-0.0335662 -0.180559 0.711093
-0.0302071 -0.180307 0.710172
-0.0269244 -0.180505 0.711016
-0.0234303 -0.179143 0.705705
-0.0201 -0.178792 0.704371
-0.0168022 -0.17865 0.70385
-0.0138154 -0.182548 0.719241
-0.0104708 -0.182702 0.719875
-0.007139 -0.18333 0.722368
-0.00375869 -0.182721 0.719982
-0.000404827 -0.183967 0.724896
0.00293952 -0.181794 0.716329
0.00626792 -0.18147 0.715045
0.00960958 -0.181622 0.715625
0.0129193 -0.181247 0.714123
0.0162076 -0.180788 0.712283
0.0194635 -0.180184 0.709864
0.0227997 -0.180391 0.710634
0.0260262 -0.179788 0.708206
0.0291857 -0.17891 0.704685
0.0324692 -0.178893 0.704549
0.0357169 -0.1787 0.703712
0.0389608 -0.178522 0.702926
0.0421313 -0.178062 0.701021
0.0451595 -0.177109 0.697171
0.0486536 -0.177989 0.700526
0.0519027 -0.177919 0.70013
0.0551014 -0.177694 0.699117
0.0582366 -0.177301 0.697436
0.0609023 -0.175596 0.690584
0.064002 -0.175251 0.689074
0.0670376 -0.174772 0.687026
0.070589 -0.17562 0.690184
0.0725739 -0.172667 0.678396
0.0758848 -0.172984 0.679447
0.0787421 -0.172283 0.67649
0.0816012 -0.171639 0.67375
0.0849112 -0.171957 0.674771
0.0882591 -0.172326 0.67598
0.0915621 -0.172585 0.676744
0.096016 -0.174923 0.685643
0.0998491 -0.176016 0.689641
0.103123 -0.176086 0.689616
0.106273 -0.175945 0.688751
0.108948 -0.17505 0.684921
0.112225 -0.175145 0.684952
0.115974 -0.175952 0.687747
0.118347 -0.174684 0.682416
0 0 0
0.118467 -0.165866 0.647213
0.118405 -0.161622 0.630257
0.120567 -0.160547 0.62566
0.123741 -0.16084 0.626374
0.128391 -0.162992 0.634306
0.134805 -0.167235 0.650337
0.138505 -0.167996 0.652797
0.158203 -0.187706 0.728803
0.163848 -0.190256 0.73809
0.167172 -0.190062 0.736698
0.17087 -0.190292 0.73693
0.174093 -0.189994 0.735089
0.17731 -0.189702 0.73325
0.180363 -0.189249 0.730765
0.182154 -0.187514 0.723312
0.185255 -0.187167 0.721194
0.185261 -0.183762 0.707287
0.187475 -0.182631 0.702121
0.189618 -0.181471 0.696829
0.190318 -0.178993 0.686468
0.193445 -0.178845 0.685025
0.192909 -0.175371 0.670837
0.195391 -0.174709 0.6674
0.198286 -0.174433 0.665415
0.193614 -0.167614 0.638483
0.195805 -0.166858 0.634662
0.196474 -0.164847 0.626063
0.197567 -0.163248 0.619023
0.200388 -0.163103 0.617486
0.200382 -0.160696 0.607377
0.206789 -0.163426 0.616662
0.207723 -0.161815 0.609539
0.211626 -0.162529 0.611162
0.214216 -0.16223 0.608954
0.213709 -0.159626 0.598096
0.213942 -0.157637 0.589562
0.216761 -0.157581 0.58826
0.220646 -0.158291 0.589806
0.225776 -0.159864 0.594544
0.229806 -0.160628 0.596253
0.233114 -0.160875 0.596035
0.234682 -0.159929 0.591407
0.233994 -0.157489 0.581285
0.236213 -0.157041 0.578545
0.238737 -0.156804 0.576606
0.240298 -0.155948 0.572417
0.243221 -0.155985 0.571537
0.249613 -0.15822 0.57873
0.251621 -0.157658 0.575714
0.250614 -0.15524 0.565982
0.253446 -0.155227 0.565081
0.255736 -0.154888 0.563041
0.259393 -0.155374 0.564059
0.262803 -0.155703 0.564566
0.264377 -0.154949 0.56121
0.26193 -0.15188 0.549554
0.265227 -0.15217 0.550137
0.267488 -0.151867 0.548646
0.271458 -0.15253 0.550725
0.277804 -0.154501 0.557602
0.283155 -0.155885 0.562436
0.282788 -0.154124 0.55601
0.282631 -0.152511 0.550204
0.285286 -0.152433 0.550016
0.288051 -0.152414 0.550128
0.286218 -0.149986 0.541621
0.284594 -0.147714 0.533745
0.285323 -0.146693 0.530465
0.288546 -0.146962 0.531922
0.292192 -0.14744 0.53421
0.291006 -0.145493 0.527778
0.292536 -0.144927 0.526416
0.291426 -0.143075 0.520437
0.294783 -0.143429 0.522542
0.298066 -0.143742 0.524558
0.296043 -0.141513 0.517348
0.295457 -0.140003 0.5128
0 0 0
0 0 0
0 0 0
0 0 0
0 0 0
-0.468863 -0.242963 0.89327
-0.464991 -0.243316 0.894316
0 0 0
0 0 0
-0.40818 -0.220053 0.808873
-0.402556 -0.219233 0.806125
-0.396344 -0.218072 0.802242
-0.389846 -0.216729 0.797796
-0.385428 -0.216525 0.797657
-0.378883 -0.21511 0.793158
-0.37469 -0.215014 0.793621
-0.36906 -0.214082 0.791095
-0.364201 -0.213582 0.790248
-0.359531 -0.213183 0.789853
-0.354769 -0.212719 0.789295
-0.350249 -0.212393 0.78931
-0.346213 -0.212355 0.790459
-0.342986 -0.212819 0.793532
-0.338331 -0.212396 0.79335
-0.334392 -0.212419 0.79487
-0.330134 -0.212238 0.795656
-0.326118 -0.212209 0.79704
-0.322017 -0.212123 0.798232
-0.317711 -0.211899 0.798912
-0.31389 -0.211997 0.800814
-0.309796 -0.21191 0.802024
-0.305661 -0.211792 0.803112
-0.299954 -0.210568 0.799989
-0.292894 -0.208349 0.79305
0 0 0
-0.276345 -0.201954 0.771558
-0.271875 -0.201442 0.770997
-0.266792 -0.200456 0.768588
-0.261844 -0.199544 0.766428
-0.254821 -0.197001 0.757958
-0.250432 -0.19645 0.757105
-0.247212 -0.196814 0.759748
-0.242934 -0.196333 0.759101
-0.239356 -0.196412 0.760591
-0.235332 -0.196121 0.760617
-0.225255 -0.190698 0.740673
-0.221007 -0.190113 0.739461
-0.217044 -0.189759 0.739109
-0.213426 -0.1897 0.739875
-0.210216 -0.190007 0.742044
-0.20818 -0.191404 0.748446
0 0 0
0 0 0
0 0 0
-0.20254 -0.199982 0.785646
-0.202536 -0.203743 0.801278
-0.198379 -0.203389 0.800713
-0.193797 -0.202579 0.798315
-0.189274 -0.201798 0.796003
-0.185104 -0.20137 0.795047
-0.18127 -0.201297 0.795467
-0.177271 -0.201035 0.795109
-0.172722 -0.200123 0.792152
-0.167824 -0.198758 0.787371
-0.163999 -0.19863 0.787462
-0.160349 -0.198713 0.788364
-0.156056 -0.197984 0.786024
-0.15244 -0.1981 0.787012
-0.147767 -0.196813 0.782401
-0.14404 -0.196754 0.782648
-0.138688 -0.194413 0.77379
-0.133654 -0.192403 0.766221
-0.129785 -0.192007 0.765055
-0.125336 -0.190704 0.760256
-0.121444 -0.190198 0.758614
-0.117459 -0.189511 0.756226
-0.113832 -0.189377 0.756031
-0.10986 -0.188642 0.753416
-0.105823 -0.187744 0.750132
-0.102043 -0.187254 0.748465
-0.09851 -0.187199 0.748519
-0.0947503 -0.186694 0.746757
-0.0908306 -0.185823 0.743517
-0.0871226 -0.185332 0.741786
-0.0831284 -0.184167 0.73734
-0.0795426 -0.183845 0.736257
-0.075565 -0.182547 0.731253
-0.0719104 -0.181944 0.729017
-0.0684477 -0.181791 0.728571
-0.064924 -0.181451 0.727367
-0.0614531 -0.181229 0.726626
-0.0578742 -0.180644 0.72442
-0.0542591 -0.179866 0.72143
-0.050688 -0.179141 0.718642
-0.0471372 -0.17839 0.71574
-0.0438019 -0.178403 0.715891
-0.0404603 -0.17839 0.715932
-0.0367688 -0.176693 0.709205
-0.0334176 -0.176458 0.708337
-0.0300515 -0.176083 0.706903
-0.0267463 -0.176017 0.706699
-0.0233518 -0.175262 0.703721
-0.0200839 -0.175367 0.704186
-0.0167972 -0.175315 0.704018
-0.0136046 -0.17646 0.708648
-0.0104427 -0.178864 0.718324
-0.0070932 -0.178807 0.718117
-0.00376124 -0.179486 0.720854
-0.000400451 -0.178636 0.717442
0.00293285 -0.178049 0.715084
0.00625729 -0.177835 0.714213
0.00956353 -0.177431 0.712577
0.0128645 -0.177163 0.711475
0.0160303 -0.175525 0.704868
0.0193624 -0.175955 0.706559
0.0226726 -0.17609 0.707056
0.0257407 -0.17455 0.700819
0.0289931 -0.174465 0.70042
0.0323694 -0.175067 0.702772
0.0352014 -0.172886 0.693943
0.0383758 -0.172611 0.692761
0.0415082 -0.172206 0.691046
0.0446403 -0.171857 0.689551
0.047736 -0.171424 0.687711
0.0508633 -0.171153 0.68651
0.0540864 -0.171217 0.686647
0.0570504 -0.170499 0.683639
0.0604735 -0.171157 0.686138
0.0632006 -0.169878 0.680863
0.066707 -0.170715 0.684064
0.0695389 -0.169829 0.680346
0.0719368 -0.168007 0.672872
0.0751131 -0.168079 0.672975
0.0780543 -0.16764 0.671024
0.0811509 -0.167557 0.670482
0.0842022 -0.167389 0.669593
0.087277 -0.167278 0.668922
0.0906347 -0.167699 0.67036
0.0944073 -0.168833 0.674638
0.0983024 -0.170106 0.679452
0.102299 -0.171469 0.684609
0.10575 -0.171863 0.68588
0.108616 -0.17131 0.683354
0.111607 -0.170981 0.681713
0.115506 -0.172023 0.685517
0.118729 -0.172029 0.685174
0 0 0
0.118753 -0.163212 0.649318
0 0 0
0 0 0
0 0 0
0 0 0
0.148115 -0.180371 0.715201
0.153405 -0.18265 0.723696
0.157503 -0.183442 0.726263
0.162747 -0.185506 0.733839
0.165841 -0.185085 0.731553
0.16848 -0.184183 0.727347
0.17223 -0.184509 0.727965
0.174988 -0.183779 0.724398
0.17669 -0.18199 0.716639
0.180049 -0.181942 0.715718
0.180586 -0.179098 0.703784
0.182911 -0.178099 0.69909
0.184696 -0.176618 0.692489
0.186292 -0.175013 0.685389
0.188418 -0.173952 0.680405
0.188294 -0.170885 0.667569
0.188533 -0.168244 0.656403
0.190931 -0.167586 0.652959
0.190442 -0.164455 0.639876
0.191741 -0.162944 0.633095
0.19197 -0.160585 0.623017
0.192661 -0.158679 0.614696
0.195945 -0.158933 0.614731
0.196431 -0.156946 0.606081
0.198519 -0.156277 0.602518
0.2008 -0.155778 0.599594
0.204913 -0.156693 0.602093
0.208839 -0.157443 0.603922
0.210449 -0.156449 0.59905
0.208965 -0.153215 0.585608
0.210775 -0.15245 0.581618
0.214976 -0.153412 0.584202
0.218726 -0.154031 0.585457
0.222384 -0.15457 0.586394
0.225865 -0.154973 0.586802
0.229173 -0.15525 0.586724
0.231911 -0.155138 0.585178
0.228501 -0.150967 0.568356
0.230099 -0.150166 0.564269
0.233017 -0.150236 0.563469
0.237114 -0.151055 0.565492
0.241635 -0.152121 0.568452
0.244548 -0.152162 0.567599
0.244579 -0.15043 0.560176
0.248618 -0.151174 0.562019
0.251316 -0.151096 0.560844
0.2557 -0.152021 0.563439
0.256269 -0.150683 0.557699
0.260802 -0.151679 0.560662
0.261588 -0.150498 0.55564
0.260602 -0.148333 0.547068
0.261198 -0.147106 0.542035
0.263475 -0.146841 0.540626
0.266106 -0.146776 0.540033
0.270872 -0.147879 0.543809
0.278079 -0.150278 0.552429
0 0 0
0.279318 -0.147955 0.543738
0.281272 -0.147527 0.542217
0 0 0
0.28205 -0.145087 0.533591
0.280248 -0.142786 0.525417
0.280673 -0.141652 0.521606
0.282311 -0.141146 0.52018
0.285644 -0.141488 0.521955
0.286188 -0.140455 0.518727
0.286826 -0.139488 0.5158
0.286952 -0.13829 0.51208
0.288387 -0.137739 0.51081
0.288273 -0.136465 0.50691
0.288651 -0.135444 0.503995
0.29071 -0.135223 0.504104
0.29677 -0.136851 0.511172
0.300267 -0.137279 0.513827
0.300704 -0.136312 0.511309
0 0 0
0 0 0
-0.465594 -0.236754 0.886897
-0.46286 -0.237668 0.890141
0 0 0
0 0 0
-0.408028 -0.215855 0.8087
-0.403102 -0.215422 0.807412
-0.39587 -0.213735 0.801541
-0.39017 -0.21285 0.798784
-0.385639 -0.21259 0.798484
-0.379806 -0.211599 0.795541
-0.374149 -0.210685 0.792985
-0.369156 -0.21013 0.791868
-0.364068 -0.209508 0.790581
-0.359308 -0.209063 0.790038
-0.354859 -0.208792 0.790219
-0.350492 -0.208563 0.790628
-0.346376 -0.208479 0.791644
-0.34233 -0.208437 0.792868
-0.338878 -0.208759 0.795525
-0.334635 -0.208595 0.796371
-0.330411 -0.20844 0.797275
-0.325326 -0.207732 0.796079
-0.32163 -0.207903 0.798269
-0.315622 -0.206566 0.794669
-0.310994 -0.20611 0.794448
-0.303705 -0.203855 0.787276
0 0 0
-0.290622 -0.2002 0.776123
-0.286075 -0.199691 0.775612
-0.278731 -0.197189 0.767325
-0.274011 -0.196501 0.766053
-0.270077 -0.196366 0.766909
-0.264638 -0.195116 0.763383
-0.259095 -0.193754 0.759372
-0.253922 -0.192633 0.756262
-0.248426 -0.19123 0.752003
-0.244396 -0.190931 0.752048
-0.240781 -0.190951 0.753321
-0.239114 -0.192541 0.760764
-0.235943 -0.192951 0.763527
-0.229951 -0.19103 0.757029
-0.223105 -0.188327 0.747374
-0.22125 -0.189816 0.75432
0 0 0
-0.22304 -0.197825 0.788211
-0.220872 -0.199273 0.794974
-0.217669 -0.199821 0.798125
-0.214985 -0.200874 0.803266
-0.211114 -0.200836 0.804021
-0.206839 -0.200404 0.803167
-0.20216 -0.199559 0.80062
-0.197288 -0.198486 0.797125
-0.192947 -0.197916 0.795612
-0.189042 -0.197779 0.79581
-0.185095 -0.197592 0.795776
-0.181034 -0.197273 0.795184
-0.176812 -0.196761 0.793787
-0.17208 -0.195648 0.789932
-0.167793 -0.195002 0.787932
-0.163576 -0.19441 0.786123
-0.159582 -0.194062 0.785275
-0.155607 -0.193721 0.784431
-0.150675 -0.192141 0.778546
-0.147135 -0.192304 0.779695
-0.143264 -0.192032 0.779058
-0.138558 -0.190596 0.773677
-0.13338 -0.188415 0.765243
-0.129465 -0.187948 0.763749
-0.125727 -0.187718 0.763196
-0.121129 -0.186154 0.757199
-0.117434 -0.185925 0.756612
-0.11361 -0.185472 0.755093
-0.109885 -0.185155 0.754115
-0.106066 -0.184654 0.75237
-0.102259 -0.184139 0.750551
-0.0985368 -0.183746 0.749218
-0.0947494 -0.183198 0.747236
-0.0905944 -0.181871 0.742058
-0.0855793 -0.178642 0.729105
-0.0830964 -0.180651 0.737513
-0.0795876 -0.180507 0.737122
-0.0759721 -0.180096 0.735634
-0.0720681 -0.178931 0.731048
-0.0685682 -0.178703 0.730279
-0.065105 -0.178551 0.729815
-0.061491 -0.177947 0.727488
-0.0579087 -0.177369 0.725259
-0.0540581 -0.175846 0.719156
-0.0505618 -0.175351 0.717246
-0.0472921 -0.175627 0.718482
-0.0439014 -0.175462 0.717904
-0.0405153 -0.175289 0.717286
-0.0370646 -0.174781 0.715288
-0.0336136 -0.174171 0.712862
-0.0302984 -0.174207 0.713079
-0.0268655 -0.173493 0.710213
-0.0235245 -0.173255 0.709288
-0.0201803 -0.172911 0.707927
-0.0168759 -0.172841 0.707677
-0.013736 -0.17483 0.715852
-0.0104209 -0.175151 0.71719
-0.00706378 -0.174734 0.715498
-0.00371213 -0.173828 0.711799
-0.000396176 -0.173421 0.71014
0.0029238 -0.174178 0.713235
0.00623881 -0.173991 0.712461
0.00951229 -0.173178 0.709116
0.0126993 -0.171615 0.702695
0.0159359 -0.171226 0.701072
0.0191913 -0.171136 0.70067
0.0224616 -0.171187 0.700834
0.0256654 -0.170782 0.699127
0.0288259 -0.170212 0.696741
0.0319717 -0.16968 0.6945
0.0351129 -0.169224 0.692562
0.0382662 -0.168897 0.69115
0.0411924 -0.167697 0.686155
0.0441013 -0.166605 0.681594
0.0472749 -0.166592 0.681441
0.0507191 -0.167474 0.684943
0.0535294 -0.166282 0.679955
0.0566013 -0.165992 0.678643
0.0598913 -0.166337 0.679923
0.0628049 -0.165655 0.676994
0.0659638 -0.165654 0.676842
0.0691985 -0.165835 0.677421
0.0712525 -0.163295 0.666877
0.073961 -0.162404 0.663063
0.0769862 -0.162252 0.662257
0.0803688 -0.162836 0.664443
0.0834926 -0.162872 0.66438
0.0868938 -0.163427 0.666423
0.090252 -0.163866 0.667977
0.0937812 -0.164575 0.67062
0.0973987 -0.165388 0.673673
0.101311 -0.166636 0.678479
0.104675 -0.166932 0.679392
0.107281 -0.166039 0.675451
0.111174 -0.167131 0.679573
0.114996 -0.168058 0.683006
0.118329 -0.168241 0.683393
0.122206 -0.169166 0.686778
0.125529 -0.169296 0.686915
0.130485 -0.171568 0.69572
0.134951 -0.173098 0.701492
0 0 0
0 0 0
0.148669 -0.177658 0.718509
0.151665 -0.177199 0.716127
0.15571 -0.17796 0.718652
0.159636 -0.178555 0.72048
0.163495 -0.179053 0.721889
0.167119 -0.179277 0.722167
0.170203 -0.178924 0.720102
0.173267 -0.178566 0.71799
0.176106 -0.177993 0.714995
0.178446 -0.176948 0.71008
0.180227 -0.175397 0.703122
0.18185 -0.173752 0.695776
0.182447 -0.171203 0.684802
0.184394 -0.169988 0.679155
0.185006 -0.167606 0.668836
0.185309 -0.165028 0.657735
0.187171 -0.163903 0.652415
0.186361 -0.160513 0.638078
0.186535 -0.158066 0.627495
0.187469 -0.156332 0.619738
0.18845 -0.154689 0.612339
0.192033 -0.155201 0.61345
0 0 0
0.193675 -0.151848 0.598335
0.196316 -0.151651 0.596595
0.196999 -0.149969 0.589003
0 0 0
0 0 0
0.20631 -0.150502 0.588039
0.207552 -0.149331 0.582415
0.205309 -0.145717 0.567283
0.212023 -0.148473 0.576939
0.218937 -0.151294 0.586795
0.218496 -0.149026 0.5769
0.223246 -0.15031 0.580755
0 0 0
0 0 0
0.223369 -0.144815 0.556291
0.22742 -0.14564 0.558385
0.230046 -0.145544 0.556954
0.235456 -0.147191 0.562194
0.240585 -0.148626 0.566622
0.238413 -0.145569 0.553963
0.24074 -0.145298 0.551958
0 0 0
0.246424 -0.145382 0.55044
0.250654 -0.146232 0.552799
0.257658 -0.148664 0.561172
0.260631 -0.148743 0.560704
0.254475 -0.143666 0.540889
0.255046 -0.142455 0.535719
0.258687 -0.142965 0.537095
0.260909 -0.142689 0.535588
0.26174 -0.141667 0.531355
0.260243 -0.139417 0.522605
0.260845 -0.138326 0.518283
0.263101 -0.138126 0.517378
0.265868 -0.138195 0.517564
0.269473 -0.138694 0.519437
0.271328 -0.138291 0.518016
0.27364 -0.138127 0.517566
0.276031 -0.138005 0.517356
0.276107 -0.13674 0.512932
0.277841 -0.136311 0.511719
0.280559 -0.136368 0.512405
0.282982 -0.136283 0.512627
0.282035 -0.134591 0.506867
0.283651 -0.134141 0.505846
0.285665 -0.133886 0.50562
0.287911 -0.133743 0.505879
0.288539 -0.132858 0.503384
0.290648 -0.132664 0.503559
0.293804 -0.132947 0.505603
0.295821 -0.132715 0.50574
0.292414 -0.130074 0.496726
0 0 0
0 0 0
-0.473699 -0.236282 0.902225
0 0 0
0 0 0
-0.419329 -0.215429 0.822679
-0.409568 -0.212537 0.811913
-0.403289 -0.211412 0.808013
-0.3948 -0.209092 0.799663
-0.390104 -0.208755 0.799001
-0.385322 -0.208364 0.798242
-0.379976 -0.207656 0.796372
-0.374869 -0.207065 0.795046
-0.369216 -0.206156 0.792585
-0.364346 -0.20567 0.791827
-0.359284 -0.205063 0.790676
-0.354988 -0.204884 0.791245
-0.350709 -0.204712 0.791901
-0.346524 -0.204591 0.792806
-0.342764 -0.204721 0.794734
-0.338543 -0.204575 0.795633
-0.333524 -0.203938 0.794649
-0.328329 -0.203177 0.793197
-0.323676 -0.202737 0.793008
-0.316296 -0.200556 0.786006
-0.312617 -0.200697 0.788094
-0.306006 -0.198937 0.782703
-0.299823 -0.197412 0.778213
-0.291461 -0.194395 0.767798
-0.285995 -0.193255 0.764755
-0.280143 -0.191821 0.760515
-0.276587 -0.191941 0.762409
-0.271465 -0.190962 0.759915
-0.265857 -0.189611 0.755898
-0.260686 -0.188537 0.752945
-0.254024 -0.186339 0.745454
-0.249648 -0.185778 0.74447
-0.245689 -0.185516 0.744649
-0.242743 -0.186023 0.747885
-0.24002 -0.186717 0.751856
-0.238663 -0.188513 0.760246
-0.235706 -0.189081 0.763669
-0.233462 -0.190248 0.769491
-0.230568 -0.190914 0.773267
-0.229225 -0.192908 0.782404
-0.226955 -0.194175 0.788578
-0.22401 -0.194896 0.792517
-0.220745 -0.19536 0.795383
-0.217242 -0.195626 0.797412
-0.214009 -0.196148 0.800461
-0.21019 -0.196143 0.80133
-0.205845 -0.195639 0.800126
-0.199569 -0.193244 0.79115
-0.196186 -0.193613 0.793452
-0.192282 -0.193472 0.793633
-0.187985 -0.192922 0.79211
-0.18435 -0.193044 0.793314
-0.180358 -0.192789 0.792942
-0.175649 -0.19174 0.789274
-0.17141 -0.19117 0.787549
-0.167333 -0.190759 0.78645
-0.163247 -0.190319 0.785209
-0.158498 -0.189067 0.780586
-0.153857 -0.187888 0.776237
-0.150262 -0.187961 0.777036
-0.144909 -0.185783 0.768502
-0.140208 -0.184351 0.763023
-0.135936 -0.183423 0.759607
-0.131603 -0.182361 0.755613
-0.12782 -0.182021 0.754591
-0.123466 -0.180828 0.750011
-0.120225 -0.181242 0.752076
-0.116379 -0.180741 0.750331
-0.111545 -0.178628 0.741869
-0.107958 -0.178439 0.741382
-0.10401 -0.177621 0.738264
-0.100728 -0.177923 0.73979
-0.0975938 -0.178517 0.742514
-0.0937773 -0.177861 0.740026
-0.0898997 -0.177034 0.736814
-0.0851226 -0.1743 0.725646
-0.0821488 -0.175185 0.729531
-0.0795507 -0.176982 0.737206
-0.0759816 -0.176684 0.736144
-0.0723035 -0.176092 0.733846
-0.0684536 -0.175002 0.729462
-0.0648263 -0.174396 0.727086
-0.0614111 -0.174326 0.726932
-0.0574977 -0.172752 0.720493
-0.0539307 -0.172086 0.717837
-0.0505029 -0.171807 0.71678
-0.0472235 -0.172028 0.717805
-0.0439182 -0.172182 0.718541
-0.0405055 -0.171905 0.717471
-0.037028 -0.171278 0.714934
-0.0336648 -0.171109 0.714299
-0.029928 -0.168796 0.704705
-0.0267306 -0.16933 0.706988
-0.0235182 -0.169905 0.70944
-0.0202072 -0.169839 0.709207
-0.016768 -0.16846 0.703485
-0.0135451 -0.169113 0.706241
-0.0102266 -0.168607 0.70415
-0.00692552 -0.168046 0.701824
-0.00367612 -0.168858 0.705225
-0.000393407 -0.168925 0.705507
0.0028701 -0.167718 0.700465
0.00613155 -0.167739 0.700542
0.00938181 -0.167545 0.699719
0.0126395 -0.167549 0.699715
0.0158818 -0.16739 0.699023
0.0191164 -0.167218 0.698269
0.0222681 -0.166475 0.69513
0.0254973 -0.166428 0.694885
0.028587 -0.165583 0.691302
0.0316471 -0.164754 0.687785
0.0347996 -0.164515 0.686722
0.0378311 -0.163793 0.683632
0.0406788 -0.162448 0.67794
0.0437315 -0.162057 0.676223
0.0466255 -0.16117 0.672426
0.0496458 -0.160804 0.670798
0.0528748 -0.161117 0.671995
0.0560432 -0.16122 0.67231
0.0590484 -0.160868 0.670717
0.0622682 -0.161107 0.671579
0.0653153 -0.160898 0.670562
0.0683185 -0.160604 0.669186
0.0707489 -0.159048 0.662544
0.0730698 -0.157387 0.655456
0.0762915 -0.157722 0.656671
0.079396 -0.157798 0.656797
0.0830861 -0.158988 0.661552
0.0860554 -0.158764 0.660406
0.0899791 -0.160255 0.666381
0.0931945 -0.160426 0.666857
0.0963287 -0.160452 0.666712
0.0993503 -0.160294 0.665792
0.103838 -0.162439 0.674421
0.105784 -0.160599 0.666491
0.109586 -0.161601 0.67034
0.11311 -0.16215 0.672292
0.116139 -0.161977 0.671237
0.119553 -0.162337 0.672373
0.12353 -0.163423 0.676497
0.128881 -0.166227 0.687704
0.132 -0.166085 0.686703
0 0 0
0 0 0
0 0 0
0 0 0
0 0 0
0 0 0
0 0 0
0 0 0
0 0 0
0 0 0
0 0 0
0 0 0
0 0 0
0 0 0
0 0 0
0 0 0
0 0 0
0 0 0
0 0 0
0 0 0
0 0 0
0 0 0
0 0 0
0 0 0
0.175952 -0.137375 0.553374
0.178492 -0.137274 0.552107
0.181255 -0.137346 0.55151
0.183526 -0.137048 0.549412
0.18544 -0.136496 0.546279
0.188748 -0.136971 0.547237
0.191182 -0.136807 0.545622
0.192086 -0.135568 0.539712
0.195775 -0.136301 0.541641
0.198332 -0.136237 0.540385
0.200124 -0.135656 0.537069
0.202742 -0.135643 0.535996
0.206695 -0.136512 0.538391
0.208895 -0.136216 0.536183
0.210111 -0.135294 0.531518
0.213392 -0.135708 0.532105
0.214994 -0.135057 0.528524
0.219446 -0.13619 0.531928
0.220818 -0.135408 0.52786
0.222863 -0.135052 0.525479
0.225749 -0.135208 0.525113
0.228732 -0.135417 0.524978
0.231546 -0.135524 0.524469
0.233908 -0.135366 0.522977
0.236494 -0.13534 0.522034
0.239384 -0.135486 0.521803
0.242663 -0.135847 0.522447
0.245412 -0.135907 0.521984
0.246405 -0.135003 0.517887
0.248234 -0.134572 0.51567
0.250366 -0.134312 0.514183
0.254945 -0.135357 0.517756
0.257634 -0.135387 0.517521
0.259257 -0.134862 0.51524
0.261501 -0.134668 0.514302
0.264038 -0.134626 0.514028
0.266577 -0.134587 0.513843
0.268256 -0.134118 0.512097
0.270323 -0.13385 0.511201
0.272227 -0.133508 0.510098
0.27452 -0.133361 0.509818
0.276569 -0.133099 0.509176
0.276399 -0.131785 0.504576
0.279223 -0.131908 0.505553
0.279829 -0.130992 0.502611
0.282302 -0.130957 0.503118
0.285256 -0.131145 0.504546
0.287075 -0.130812 0.504035
0.288194 -0.130169 0.502385
0.289266 -0.129515 0.500747
0.292039 -0.129629 0.502126
0.290239 -0.127727 0.495744
0.291214 -0.127069 0.494218
0.293526 -0.127001 0.49503
0 0 0
-0.461371 -0.225658 0.878674
-0.455006 -0.224724 0.874995
0 0 0
-0.418907 -0.211028 0.821978
-0.412152 -0.20972 0.817227
-0.403434 -0.207376 0.808559
-0.398141 -0.206763 0.80675
-0.390448 -0.204877 0.800086
-0.385943 -0.204642 0.79997
-0.380564 -0.203934 0.798105
-0.375154 -0.203194 0.796206
-0.370235 -0.202706 0.795382
-0.364004 -0.201482 0.791742
-0.359177 -0.201016 0.791147
-0.354889 -0.200845 0.791776
-0.350648 -0.200697 0.792553
-0.34623 -0.200443 0.792963
-0.342587 -0.200637 0.795188
-0.336684 -0.199496 0.792154
-0.331271 -0.198623 0.790196
-0.325598 -0.19757 0.787533
-0.318723 -0.195753 0.781817
-0.312302 -0.194174 0.777035
-0.307067 -0.193302 0.775067
-0.299551 -0.190954 0.767156
-0.293925 -0.189766 0.76387
-0.288639 -0.188769 0.761329
-0.28331 -0.187718 0.75854
-0.276222 -0.185458 0.750823
-0.270953 -0.184376 0.747829
-0.266976 -0.184154 0.748296
-0.262698 -0.183716 0.747856
-0.258561 -0.183365 0.747741
-0.25325 -0.18216 0.744105
-0.249109 -0.181773 0.743775
-0.245177 -0.181531 0.744
-0.242433 -0.182173 0.747828
-0.239738 -0.182872 0.751865
-0.237488 -0.183938 0.757393
-0.235501 -0.185244 0.763888
-0.232949 -0.186139 0.768678
-0.231135 -0.187663 0.776041
-0.228184 -0.188299 0.779713
-0.226718 -0.1902 0.788611
-0.223249 -0.190458 0.790673
-0.220315 -0.191189 0.794671
-0.216252 -0.190949 0.794602
-0.212161 -0.190675 0.794361
-0.206584 -0.18903 0.788371
-0.201655 -0.18793 0.784608
-0.198619 -0.188585 0.788143
-0.195371 -0.189061 0.790904
-0.191332 -0.188774 0.790448
-0.186625 -0.187804 0.787098
-0.182396 -0.187285 0.785607
-0.177682 -0.186236 0.781863
-0.173871 -0.186109 0.781959
-0.168788 -0.184585 0.776155
-0.164861 -0.184286 0.775473
-0.160794 -0.183814 0.774034
-0.156695 -0.183283 0.772324
-0.152502 -0.182613 0.770004
-0.148632 -0.182308 0.769197
-0.142885 -0.179627 0.758338
-0.138386 -0.178418 0.753664
-0.133592 -0.176755 0.747047
-0.130018 -0.176661 0.747038
-0.125113 -0.174703 0.739127
-0.121732 -0.174822 0.739978
-0.11814 -0.174635 0.739524
-0.113029 -0.172126 0.72921
-0.109303 -0.171633 0.727419
-0.106107 -0.171969 0.729127
-0.102671 -0.171925 0.729211
-0.0995609 -0.172442 0.73166
-0.0966991 -0.173442 0.736146
-0.093153 -0.173242 0.73553
-0.0895755 -0.172967 0.73458
-0.0855344 -0.171739 0.72957
-0.0803599 -0.168039 0.714041
-0.0787658 -0.171829 0.730331
-0.0756214 -0.172427 0.733048
-0.0714874 -0.170719 0.725948
-0.0679228 -0.170269 0.724183
-0.0644593 -0.170038 0.723341
-0.0610153 -0.169836 0.722613
-0.0570847 -0.168176 0.715674
-0.0535148 -0.167439 0.712652
-0.0504452 -0.168274 0.71631
-0.0469863 -0.167836 0.714543
-0.04368 -0.167919 0.714983
-0.0400805 -0.166794 0.710276
-0.0366446 -0.16621 0.707862
-0.0331786 -0.16536 0.704308
-0.0298281 -0.164962 0.702674
-0.0265645 -0.165006 0.702915
-0.0232298 -0.164559 0.701056
-0.0199765 -0.164636 0.701425
-0.0167061 -0.164575 0.7012
-0.0134658 -0.164854 0.702414
-0.0101889 -0.16472 0.701864
-0.0069128 -0.164477 0.700844
-0.00364369 -0.164115 0.699313
-0.000389965 -0.164192 0.699642
0.00285246 -0.163447 0.696466
0.00610649 -0.163805 0.697986
0.00937209 -0.164118 0.699303
0.0125764 -0.163472 0.696531
0.0157638 -0.162916 0.694139
0.0188925 -0.162047 0.690401
0.0221894 -0.162662 0.692985
0.0254103 -0.162635 0.692827
0.0282622 -0.160519 0.68376
0.0315285 -0.160946 0.685523
0.0346359 -0.160558 0.683808
0.0374223 -0.158873 0.676561
0.0404811 -0.158516 0.674966
0.0434409 -0.157851 0.672051
0.0460673 -0.156144 0.664699
0.0494524 -0.157063 0.668513
0.0522985 -0.156262 0.665001
0.0553859 -0.156232 0.66476
0.058355 -0.155888 0.66318
0.0617451 -0.156648 0.666282
0.0651094 -0.157272 0.668801
0.0667355 -0.153833 0.654031
0.0685752 -0.151164 0.642537
0.0716567 -0.151343 0.643136
0.0744956 -0.151015 0.641574
0 0 0
0 0 0
0 0 0
0 0 0
0 0 0
0 0 0
0 0 0
0 0 0
0 0 0
0 0 0
0 0 0
0 0 0
0 0 0
0 0 0
0 0 0
0 0 0
0 0 0
0 0 0
0 0 0
0 0 0
0 0 0
0 0 0
0 0 0
0.129142 -0.133253 0.559072
0.133073 -0.134557 0.564056
0.1355 -0.134317 0.562548
0.135207 -0.131444 0.549999
0.137986 -0.131608 0.550154
0.140843 -0.131841 0.550572
0.143281 -0.131678 0.549319
0.145853 -0.131643 0.548579
0.148478 -0.131657 0.548019
0.151099 -0.131666 0.54742
0.153057 -0.131108 0.544443
0.156225 -0.131586 0.54575
0.15877 -0.131533 0.54483
0.160688 -0.130971 0.54178
0.163424 -0.131083 0.541499
0.166008 -0.131071 0.540683
0.168331 -0.130856 0.539012
0.171172 -0.131045 0.538979
0.173706 -0.130997 0.537948
0.17625 -0.130957 0.536934
0.17901 -0.131076 0.536548
0.181553 -0.131037 0.535491
0.184442 -0.131243 0.535418
0.187313 -0.131432 0.535252
0.189886 -0.131409 0.534203
0.192422 -0.131362 0.53304
0.195277 -0.13153 0.532736
0.197881 -0.131528 0.531725
0.200544 -0.131564 0.530859
0.2033 -0.13166 0.530219
0.205736 -0.131548 0.528741
0.208251 -0.131489 0.52747
0.210879 -0.131503 0.526489
0.213492 -0.131506 0.525468
0.216652 -0.131842 0.525783
0.219154 -0.131775 0.524493
0.221802 -0.131796 0.523571
0.225034 -0.132159 0.524024
0.227984 -0.132351 0.523815
0.230267 -0.132155 0.522102
0.233552 -0.132532 0.522683
0.236084 -0.132479 0.521603
0.239289 -0.132799 0.522038
0.242307 -0.133011 0.522088
0.24414 -0.132574 0.519651
0.245859 -0.132085 0.517072
0.248058 -0.131862 0.515598
0.251093 -0.132083 0.51593
0.252261 -0.131328 0.512519
0.254977 -0.131386 0.512356
0.259463 -0.132345 0.515781
0.261485 -0.132042 0.514361
0.263557 -0.131769 0.513142
0.265349 -0.131362 0.511483
0.26697 -0.13088 0.509611
0.269359 -0.13078 0.509307
0.272163 -0.130881 0.509868
0.274081 -0.130559 0.508857
0.276841 -0.13064 0.509496
0.278024 -0.129982 0.507329
0.280833 -0.130089 0.508221
0.281867 -0.12938 0.505995
0.282468 -0.128487 0.503111
0.284286 -0.128158 0.5025
0.286195 -0.127876 0.502136
0.288045 -0.127572 0.501748
0.288548 -0.126682 0.499106
0.288412 -0.12553 0.495474
0.290345 -0.12529 0.49549
0.290563 -0.12432 0.492664
0.292176 -0.123959 0.492287
0 0 0
-0.460596 -0.220812 0.877159
-0.452123 -0.218873 0.86948
-0.442298 -0.216234 0.85916
-0.419173 -0.206975 0.822658
-0.413567 -0.206268 0.820257
-0.407522 -0.205324 0.817038
-0.397448 -0.20231 0.805691
-0.391602 -0.201409 0.802857
-0.386339 -0.20079 0.801256
-0.381635 -0.200453 0.800874
-0.375029 -0.199099 0.796516
-0.370464 -0.19881 0.796501
-0.363924 -0.197444 0.79224
-0.358869 -0.196862 0.791185
-0.354502 -0.196648 0.791671
-0.349952 -0.196327 0.791778
-0.34269 -0.19446 0.78568
-0.3376 -0.193796 0.784468
-0.33304 -0.193425 0.784462
-0.328355 -0.19297 0.784142
-0.318721 -0.189562 0.771807
-0.312287 -0.187997 0.766948
-0.306086 -0.186536 0.762495
-0.30153 -0.186053 0.762026
-0.295354 -0.184545 0.757342
-0.289938 -0.18348 0.754445
-0.284984 -0.182684 0.752628
-0.280128 -0.18193 0.750955
-0.27559 -0.181365 0.750039
-0.271067 -0.180795 0.74907
-0.266585 -0.180238 0.748124
-0.262317 -0.179812 0.747687
-0.25801 -0.179346 0.747056
-0.253164 -0.178487 0.74475
-0.24883 -0.177969 0.743829
-0.245047 -0.177837 0.744483
-0.242495 -0.178607 0.748893
-0.239613 -0.179153 0.75234
-0.238484 -0.181047 0.761433
-0.234947 -0.181144 0.762946
-0.233237 -0.182674 0.770478
-0.230258 -0.183244 0.773939
-0.227705 -0.184178 0.77891
-0.22541 -0.185354 0.784886
-0.222054 -0.185683 0.787254
-0.218704 -0.186028 0.78966
-0.214568 -0.185705 0.7892
-0.20819 -0.183396 0.780258
-0.204778 -0.183662 0.782232
-0.200422 -0.183078 0.78055
-0.196969 -0.18331 0.782321
-0.193292 -0.183339 0.783198
-0.18753 -0.181354 0.775432
-0.183037 -0.180541 0.772644
-0.179476 -0.180632 0.773695
-0.173849 -0.178605 0.76564
-0.170915 -0.179317 0.769297
-0.16761 -0.179663 0.771364
-0.161681 -0.177148 0.761118
-0.158304 -0.177379 0.762642
-0.154361 -0.176973 0.761401
-0.150964 -0.177187 0.762806
-0.146564 -0.176207 0.75905
-0.141288 -0.174097 0.750397
-0.137018 -0.173151 0.746737
-0.132989 -0.172469 0.744189
-0.12836 -0.17095 0.738009
-0.124242 -0.170047 0.734465
-0.12021 -0.169213 0.7312
-0.116311 -0.168524 0.72854
-0.112694 -0.168213 0.727503
-0.108997 -0.167759 0.725827
-0.105132 -0.167011 0.722862
-0.101728 -0.166968 0.722934
-0.0989114 -0.16792 0.727306
-0.095845 -0.168501 0.730056
-0.0926091 -0.168816 0.731642
-0.0889678 -0.168387 0.729994
-0.084879 -0.167044 0.724366
-0.0797347 -0.163425 0.708859
-0.0768457 -0.164317 0.712896
-0.074569 -0.166657 0.723214
-0.0709806 -0.166148 0.721161
-0.0672743 -0.165299 0.717621
-0.0641741 -0.165929 0.720489
-0.059691 -0.162855 0.707266
-0.0564455 -0.162996 0.707993
-0.0532563 -0.163327 0.709538
-0.049893 -0.163132 0.708793
-0.0464632 -0.162677 0.706907
-0.0430823 -0.162337 0.705514
-0.0400603 -0.163405 0.710233
-0.0365354 -0.162429 0.70606
-0.0329797 -0.161109 0.700388
-0.0296597 -0.160779 0.699007
-0.026329 -0.1603 0.696978
-0.0230963 -0.16037 0.697322
-0.019925 -0.160956 0.699912
-0.0164729 -0.159061 0.6917
-0.0132765 -0.159314 0.692828
-0.0100121 -0.158652 0.689969
-0.00686229 -0.160038 0.69601
-0.00361235 -0.159478 0.693584
-0.000385623 -0.159144 0.692138
0.00282385 -0.158599 0.689765
0.00601801 -0.158231 0.688156
0.00917051 -0.157404 0.684545
0.0123614 -0.157491 0.684908
0.015547 -0.15749 0.684877
0.0186783 -0.157032 0.682857
0.0218029 -0.15666 0.681202
0.024984 -0.156736 0.681493
0.0278586 -0.155089 0.674284
0.0309249 -0.154735 0.67269
0.0340919 -0.154903 0.673361
0.0370896 -0.154338 0.670842
0.0402311 -0.154413 0.671095
0.0431423 -0.153657 0.667732
0.0458238 -0.15224 0.661487
0.0486608 -0.151485 0.658115
0.0516501 -0.151265 0.657064
0.0547147 -0.151278 0.657016
0.0575413 -0.150667 0.654248
0.0604277 -0.150266 0.652385
0.063366 -0.150026 0.651217
0.0652576 -0.147443 0.63987
0.0668634 -0.144469 0.62682
0 0 0
0 0 0
0 0 0
0 0 0
0 0 0
0 0 0
0 0 0
0 0 0
0.0859583 -0.133295 0.576765
