ply
format ascii 1.0
comment Generated by sampleExportPLY
element vertex 1943
property float x
property float y
property float z
element face 0
property list uchar int vertex_index
end_header
-0.0860083 0.23013 0.664302
-0.0825657 0.229377 0.662492
-0.0790341 0.228307 0.659747
-0.0758354 0.228149 0.659622
-0.0728237 0.228564 0.661139
-0.0695486 0.228153 0.66025
-0.0662388 0.227584 0.658888
-0.0627393 0.226275 0.655364
-0.0592424 0.224838 0.651453
-0.0560207 0.224344 0.650261
-0.0529176 0.224296 0.650343
-0.0495952 0.223255 0.647531
-0.0462859 0.222138 0.644486
-0.0431164 0.221582 0.643053
-0.0401901 0.222286 0.645263
-0.0369049 0.220957 0.64156
-0.033763 0.220325 0.639866
-0.0307076 0.220188 0.639596
-0.0274835 0.218679 0.635325
-0.0244094 0.218139 0.633858
-0.0214247 0.218357 0.634583
-0.0183849 0.217994 0.633605
-0.0153712 0.217858 0.633277
-0.0123728 0.217928 0.633533
-0.00933217 0.217059 0.631049
-0.00630581 0.215858 0.627588
-0.0033222 0.215283 0.625935
-0.000356004 0.215654 0.62702
0.00260557 0.2148 0.624535
0.00556213 0.214661 0.624115
0.00839488 0.2115 0.614896
0.0113079 0.211469 0.614767
0.0143086 0.212755 0.618456
0.017192 0.212154 0.616649
0.0200325 0.211277 0.614027
0.022921 0.211064 0.613323
0.0258278 0.211049 0.613184
0.0287123 0.210873 0.612565
0.0316477 0.211069 0.613013
0.0345012 0.210732 0.611904
0.0373404 0.210366 0.610697
0.0401975 0.210147 0.609906
0.0432337 0.21083 0.611723
0.0459277 0.209864 0.608738
0.0489562 0.21045 0.610246
0.0518014 0.210227 0.609393
0.0545154 0.209523 0.607134
0.0571661 0.208659 0.6044
0.060302 0.209564 0.606777
0.0630889 0.209229 0.605548
0.0658397 0.208808 0.60406
0.0686599 0.208634 0.603271
0.0715224 0.208597 0.602865
0.0743168 0.208372 0.601901
0.0772257 0.208473 0.601864
0.0801604 0.208633 0.601985
0.0828861 0.208258 0.600544
0.085254 0.207038 0.596657
0.088002 0.206791 0.595559
0.0912752 0.207755 0.597931
0.0938316 0.207078 0.595566
0.0964833 0.206645 0.593888
0.0991615 0.206293 0.592425
0.101919 0.206119 0.591462
0.104672 0.205947 0.590486
0.107995 0.206877 0.592652
0.110487 0.206207 0.590217
0.113106 0.2058 0.58852
0.116163 0.206194 0.589094
0.118591 0.205476 0.586478
0.121444 0.205513 0.586
0.124294 0.205542 0.58548
0.126957 0.205268 0.58408
0.129935 0.205504 0.584116
0.132693 0.205389 0.583134
0.135347 0.205122 0.581705
0.138709 0.205916 0.583267
0.141539 0.205905 0.582529
0.143961 0.205312 0.580129
0.146577 0.205014 0.57855
0.149463 0.205098 0.578032
0.15271 0.205664 0.578857
0.154995 0.204938 0.576031
0.157842 0.204966 0.575315
0.16058 0.204857 0.574198
0.163146 0.204535 0.572477
0.165753 0.204273 0.570915
0.168674 0.204402 0.570439
0.17102 0.203841 0.568028
0.173938 0.203968 0.567533
0.176269 0.203414 0.565139
0.179464 0.203859 0.565519
0.182885 0.204543 0.566557
0.184644 0.203376 0.56247
0.187671 0.20362 0.562297
0.190473 0.203615 0.561441
0 0 0
0 0 0
0 0 0
0 0 0
0 0 0
0 0 0
0 0 0
0 0 0
0 0 0
0 0 0
0 0 0
0 0 0
0 0 0
0 0 0
0 0 0
0 0 0
0 0 0
0 0 0
0 0 0
0.368041 0.303896 0.822437
0.370796 0.302726 0.819306
0.369962 0.298685 0.808498
0.374722 0.299198 0.810114
0.380068 0.300165 0.813053
0.384846 0.300666 0.81483
0 0 0
0.398056 0.30443 0.826171
0.400742 0.303288 0.823781
0.403361 0.302119 0.821405
0 0 0
0.378178 0.277528 0.756261
0.381005 0.276803 0.755262
0.37874 0.27243 0.744367
0.385089 0.274278 0.750536
0.385622 0.271988 0.745452
0.38915 0.271834 0.746283
0.394808 0.273157 0.751241
0 0 0
0 0 0
0 0 0
0 0 0
0 0 0
0 0 0
0 0 0
0 0 0
0 0 0
0 0 0
0 0 0
0 0 0
0 0 0
0 0 0
0 0 0
-0.406579 0.290046 0.785383
-0.396293 0.285476 0.771724
-0.390651 0.284195 0.767054
-0.387861 0.284983 0.768045
-0.385533 0.286131 0.770074
-0.383301 0.287374 0.772428
-0.379207 0.287232 0.771136
-0.375646 0.287495 0.771015
-0.373105 0.288552 0.773103
-0.367685 0.287381 0.769309
-0.361518 0.285595 0.763961
-0.358443 0.28624 0.765203
-0.355729 0.287191 0.767349
-0.352893 0.288062 0.769372
-0.349325 0.28835 0.769923
-0.339875 0.283733 0.757469
-0.336838 0.284425 0.759279
-0.333873 0.285195 0.761383
-0.328973 0.284311 0.759159
-0.324033 0.283371 0.756867
-0.319264 0.282559 0.755
-0.315029 0.282206 0.754435
-0.310078 0.281195 0.752188
-0.305629 0.28062 0.751175
-0.30179 0.280597 0.751712
-0.297277 0.27994 0.750613
-0.290179 0.276798 0.742906
-0.286823 0.277192 0.744738
-0.283315 0.277447 0.746251
-0.278537 0.276448 0.744438
-0.273883 0.275545 0.742925
-0.269996 0.275402 0.743494
-0.265412 0.274533 0.742133
-0.259405 0.272146 0.73669
-0.254295 0.270645 0.733655
-0.250881 0.270931 0.735482
-0.247895 0.271695 0.738628
-0.244687 0.272234 0.741183
-0.241999 0.273378 0.7454
-0.240487 0.275907 0.753415
-0.238481 0.27794 0.760098
-0.236326 0.279863 0.766495
-0.234259 0.281954 0.773367
-0.23136 0.283097 0.777646
-0.229649 0.285756 0.7861
-0.227069 0.287407 0.791785
-0.22432 0.288898 0.797031
-0.221523 0.29038 0.802247
-0.218476 0.291581 0.806684
-0.212856 0.28933 0.801549
-0.206475 0.28594 0.793219
-0.182047 0.256947 0.713728
-0.176572 0.254095 0.706713
-0.172281 0.252866 0.70418
-0.168681 0.252623 0.704367
-0.163853 0.250493 0.699265
-0.159635 0.249223 0.696535
-0.155868 0.248618 0.695636
-0.152356 0.248403 0.695805
-0.149005 0.248445 0.696674
-0.144622 0.246729 0.692585
-0.140806 0.245923 0.691024
-0.136825 0.244782 0.688496
-0.132537 0.243021 0.684196
-0.129272 0.243092 0.685031
-0.125852 0.242869 0.685013
-0.122316 0.242406 0.684299
-0.118586 0.24152 0.682368
-0.115099 0.241093 0.68171
-0.111087 0.239507 0.677754
-0.107788 0.239411 0.67799
-0.104133 0.238494 0.67588
-0.100659 0.237948 0.674799
-0.0963212 0.235252 0.667599
-0.0933053 0.235712 0.669333
-0.0898909 0.235162 0.66818
-0.0871316 0.236349 0.671947
-0.0836849 0.23569 0.670451
-0.0797143 0.233445 0.66442
-0.0767104 0.233962 0.666233
-0.0730189 0.232335 0.661925
-0.0697017 0.231807 0.660726
-0.0663887 0.231243 0.65941
-0.063076 0.230624 0.65792
-0.0596719 0.229589 0.655225
-0.0563928 0.228947 0.653636
-0.0532118 0.228651 0.653021
-0.0500548 0.228429 0.652601
-0.0468962 0.228168 0.652058
-0.0436324 0.227324 0.649831
-0.0403932 0.226488 0.647614
-0.0374937 0.227576 0.650885
-0.0340706 0.225397 0.644796
-0.0309075 0.224676 0.642866
-0.0278288 0.224478 0.642418
-0.0247408 0.224147 0.641577
-0.0215852 0.223025 0.638458
-0.0184589 0.221888 0.635284
-0.0154406 0.221859 0.635268
-0.0124486 0.222284 0.636542
-0.00938633 0.221327 0.633845
-0.00634127 0.220063 0.630256
-0.00334834 0.219967 0.629999
-0.00035808 0.219901 0.629818
0.00262758 0.219601 0.628954
0.00559154 0.218771 0.62656
0.00852346 0.217698 0.623461
0.0114796 0.217638 0.623248
0.0143663 0.216556 0.620097
0.0173426 0.216963 0.621199
0.0203315 0.217386 0.622337
0.0231885 0.216471 0.619628
0.0259431 0.214913 0.615069
0.0288094 0.214502 0.613784
0.0319204 0.215822 0.617437
0.0347505 0.21518 0.615464
0.0375277 0.214335 0.6129
0.0406195 0.215279 0.615441
0.0435639 0.215368 0.615521
0.0464459 0.215157 0.614731
0.0493487 0.215061 0.614258
0.05211 0.214394 0.612141
0.0549228 0.213998 0.610786
0.0576027 0.21315 0.60813
0.0605999 0.213501 0.60888
0.0635491 0.213659 0.609065
0.0661389 0.212648 0.605904
0.0690236 0.212629 0.605559
0.071749 0.212142 0.603864
0.0744818 0.211712 0.602322
0.0774585 0.211982 0.602755
0.0803567 0.212026 0.60253
0.0831671 0.211843 0.601644
0.0859652 0.211642 0.600693
0.0891318 0.212332 0.602254
0.0917612 0.211739 0.600159
0.0945073 0.211444 0.598893
0.0968825 0.21036 0.595381
0.0995997 0.21006 0.594074
0.102372 0.209889 0.593118
0.105327 0.210093 0.593201
0.109142 0.211954 0.597944
0.1114 0.210775 0.59409
0.113888 0.21008 0.591588
0.116852 0.210274 0.591572
0.119818 0.210463 0.591527
0.122422 0.210023 0.589694
0.125204 0.209901 0.588739
0.127705 0.209324 0.586492
0.130662 0.209502 0.586347
0.133664 0.209744 0.586358
0.136719 0.210057 0.586554
0.139188 0.209475 0.584231
0.142164 0.209664 0.584044
0.144999 0.209642 0.583254
0.147144 0.208643 0.579731
0.150138 0.208862 0.579584
0.153034 0.20894 0.579027
0.155924 0.209007 0.578428
0.15945 0.209909 0.580119
0.161668 0.209086 0.577037
0.164783 0.209434 0.577173
0.166276 0.207742 0.571685
0.169191 0.207854 0.57116
0.172712 0.208694 0.572627
0.175555 0.208701 0.5718
0.177393 0.207532 0.567752
0.180604 0.207981 0.568134
0.183109 0.207616 0.566292
0.186469 0.208216 0.567089
0.188616 0.207465 0.56421
0.190493 0.206442 0.560613
0 0 0
0 0 0
0 0 0
0 0 0
0 0 0
0 0 0
0.176923 0.173812 0.467633
0.178358 0.172913 0.464689
0.181787 0.173945 0.46697
0.182275 0.172173 0.461756
0.183356 0.170998 0.458191
0.186795 0.172024 0.460566
0.189156 0.172045 0.460288
0.189803 0.170525 0.455935
0.19126 0.169761 0.453652
0 0 0
0 0 0
0 0 0
0 0 0
0 0 0
0 0 0
0 0 0
0.368569 0.298341 0.797058
0.375527 0.300665 0.803658
0.379345 0.300452 0.803572
0 0 0
0 0 0
0.356836 0.273781 0.734061
0.356621 0.270792 0.726806
0.358442 0.269394 0.723889
0.372052 0.276795 0.744711
0.375734 0.276735 0.745563
0.381609 0.278276 0.750807
0.391279 0.282527 0.763459
0.391682 0.280069 0.75806
0.393536 0.278686 0.755624
0 0 0
0.463105 0.321757 0.875653
0 0 0
0 0 0
0 0 0
0 0 0
0 0 0
0 0 0
0 0 0
0 0 0
0 0 0
0 0 0
0 0 0
0 0 0
0 0 0
0 0 0
-0.412584 0.298331 0.797976
-0.397683 0.290372 0.775357
-0.392332 0.289298 0.771232
-0.389051 0.289744 0.771236
-0.388487 0.292243 0.776765
-0.383818 0.291673 0.774209
-0.379702 0.291517 0.772828
-0.376737 0.292249 0.773883
-0.37499 0.293952 0.777584
-0.371029 0.293937 0.77682
-0.364148 0.291584 0.769965
-0.35828 0.29 0.765235
-0.355051 0.29054 0.7662
-0.35324 0.292265 0.770373
-0.349237 0.292196 0.769901
-0.342476 0.289791 0.763365
-0.340386 0.291328 0.767303
-0.33393 0.289121 0.761466
-0.33053 0.289539 0.762628
-0.325266 0.288316 0.75955
-0.321056 0.288007 0.758964
-0.316323 0.287217 0.757188
-0.311148 0.286001 0.754365
-0.306352 0.285107 0.752463
-0.302703 0.285272 0.753428
-0.295973 0.2825 0.746697
-0.293188 0.283471 0.749919
-0.288486 0.282589 0.748301
-0.284601 0.282494 0.74882
-0.279791 0.281467 0.746917
-0.275332 0.280769 0.74593
-0.270402 0.279566 0.743636
-0.266395 0.279295 0.743857
-0.261469 0.27804 0.741487
-0.255893 0.276047 0.737164
-0.252316 0.276184 0.738549
-0.248269 0.275803 0.738567
-0.244933 0.276212 0.740719
-0.242325 0.277468 0.745161
-0.239096 0.27804 0.747783
-0.239048 0.282389 0.760588
-0.236487 0.28386 0.76567
-0.234314 0.285854 0.772175
-0.231855 0.287559 0.777911
-0.228889 0.288682 0.782079
-0.227209 0.291494 0.790828
-0.224277 0.292769 0.795417
-0.222579 0.29573 0.804589
-0.218708 0.29586 0.806054
-0.214301 0.295254 0.805499
-0.207702 0.291549 0.796458
0 0 0
-0.180372 0.263092 0.720592
-0.175046 0.260418 0.714167
-0.170653 0.259051 0.711296
-0.166179 0.257501 0.707894
-0.160528 0.254025 0.69916
-0.156808 0.253517 0.698564
-0.153756 0.254094 0.700935
-0.149782 0.253136 0.699054
-0.145823 0.25216 0.697095
-0.141201 0.249965 0.691737
-0.137211 0.248808 0.689222
-0.133555 0.248216 0.688247
-0.129736 0.247282 0.6863
-0.126468 0.247376 0.687185
-0.123273 0.247623 0.688475
-0.119232 0.246137 0.684923
-0.115637 0.245511 0.683741
-0.111942 0.244632 0.681832
-0.108278 0.243769 0.679945
-0.104824 0.243341 0.679249
-0.101271 0.242647 0.677789
-0.0970376 0.240224 0.671476
-0.0937802 0.240132 0.671658
-0.0905998 0.240239 0.672376
-0.087202 0.239755 0.671424
-0.0834331 0.238175 0.667382
-0.0802258 0.238136 0.667639
-0.0763679 0.236083 0.66223
-0.0732216 0.236147 0.66274
-0.0700851 0.23625 0.663344
-0.0666465 0.235296 0.660963
-0.0634135 0.23501 0.66044
-0.059942 0.233763 0.657202
-0.0566397 0.233075 0.655517
-0.0536321 0.23359 0.657202
-0.0503141 0.232733 0.655011
-0.0470303 0.231932 0.652961
-0.0438627 0.23163 0.652303
-0.0407345 0.231507 0.652134
-0.0376356 0.231543 0.652399
-0.0340919 0.228603 0.644266
-0.0312501 0.230255 0.649055
-0.0280197 0.22909 0.645896
-0.0248528 0.228222 0.643556
-0.0217111 0.227375 0.641263
-0.0186534 0.227274 0.64106
-0.0155244 0.226094 0.637803
-0.0125019 0.226271 0.63836
-0.00946704 0.226265 0.638387
-0.00641707 0.225721 0.636885
-0.00336992 0.224394 0.633161
-0.000360814 0.224591 0.633726
0.00264344 0.223929 0.631852
0.00562164 0.222938 0.629039
0.00859253 0.222446 0.627621
0.011599 0.222892 0.628839
0.0145139 0.221754 0.625575
0.0174703 0.221532 0.624882
0.0204396 0.221513 0.62475
0.0232601 0.220091 0.62065
0.0261611 0.219665 0.619348
0.0289891 0.218774 0.616722
0.0319435 0.218914 0.616989
0.0350413 0.21993 0.619713
0.0379335 0.219598 0.618626
0.0408031 0.219192 0.617318
0.0437702 0.219329 0.617526
0.0467262 0.219398 0.617528
0.049612 0.219147 0.616618
0.0524273 0.218631 0.614949
0.0552453 0.218181 0.613451
0.0580063 0.217562 0.611466
0.0609411 0.217622 0.611378
0.0640343 0.218217 0.612778
0.0668746 0.217936 0.611701
0.0695542 0.217177 0.609269
0.0717218 0.214944 0.602693
0.0749595 0.215967 0.605233
0.0777031 0.215543 0.603703
0.0805942 0.215544 0.603348
0.0834307 0.215404 0.602583
0.0866542 0.216239 0.604528
0.0894264 0.21593 0.60326
0.0921013 0.215413 0.601395
0.0948831 0.21517 0.60028
0.0977659 0.215164 0.599809
0.100703 0.215273 0.599643
0.10279 0.21361 0.594529
0.106272 0.214858 0.5975
0.10933 0.215206 0.597947
0.111934 0.214665 0.595907
0.114626 0.214315 0.594382
0.117205 0.213777 0.592321
0.120468 0.214482 0.593687
0.12321 0.214247 0.592433
0.125492 0.213244 0.589039
0.128327 0.213202 0.588286
0.131112 0.213081 0.587301
0.134058 0.213221 0.587018
0.13695 0.213272 0.586472
0.139905 0.213416 0.586165
0.142752 0.213394 0.585383
0.145342 0.212995 0.583556
0.147786 0.212402 0.581187
0.150862 0.212723 0.581303
0.153648 0.21263 0.580276
0.156513 0.212648 0.57954
0.159577 0.212931 0.579512
0.162463 0.212971 0.578811
0.164949 0.212495 0.576699
0.167614 0.21226 0.575239
0.171055 0.213 0.576412
0.174252 0.213417 0.576703
0.176098 0.212193 0.572558
0.178436 0.211591 0.5701
0.182167 0.212634 0.572073
0.184214 0.211709 0.568757
0.186354 0.210917 0.565812
0.189042 0.210761 0.564583
0.186384 0.204735 0.547669
0 0 0
0 0 0
0.172426 0.181386 0.483243
0.17145 0.177851 0.473219
0.170426 0.174362 0.463368
0.17155 0.173137 0.459573
0.173603 0.17287 0.458352
0.174883 0.171849 0.455169
0.177616 0.172264 0.455825
0.178584 0.170979 0.452018
0.182048 0.172086 0.454575
0.185557 0.173207 0.457206
0.186218 0.171675 0.452876
0.185849 0.169243 0.446223
0.187647 0.168818 0.444912
0.19111 0.169883 0.447575
0.193855 0.170293 0.448558
0.197536 0.171506 0.451705
0 0 0
0 0 0
0 0 0
0 0 0
0 0 0
0 0 0
0 0 0
0 0 0
0 0 0
0.352238 0.273927 0.725179
0.351856 0.270805 0.717718
0.357691 0.272484 0.723051
0.367533 0.27715 0.736405
0 0 0
0 0 0
0 0 0
0 0 0
0 0 0
0 0 0
0 0 0
0 0 0
0 0 0
0 0 0
0 0 0
0 0 0
0 0 0
0 0 0
0 0 0
0 0 0
0 0 0
0 0 0
0 0 0
0 0 0
0 0 0
-0.410556 0.300846 0.795085
-0.398581 0.294931 0.778078
-0.394915 0.295108 0.777237
-0.392546 0.296268 0.779051
-0.389549 0.296972 0.77973
-0.386818 0.297896 0.781054
-0.382961 0.297961 0.780202
-0.378687 0.297701 0.778575
-0.375662 0.298428 0.779608
-0.37156 0.298306 0.778501
-0.365571 0.296649 0.773479
-0.360007 0.295306 0.769363
-0.356798 0.295885 0.770344
-0.353401 0.29632 0.771031
-0.350411 0.29711 0.772725
-0.345887 0.296602 0.771133
-0.342705 0.297247 0.772623
-0.336737 0.295462 0.767884
-0.332466 0.295141 0.767036
-0.328202 0.294819 0.766271
-0.323087 0.293717 0.763558
-0.318326 0.292912 0.7617
-0.313684 0.292199 0.760155
-0.308213 0.290687 0.756606
-0.303513 0.289871 0.754941
-0.299304 0.289511 0.754529
-0.295176 0.28922 0.754363
-0.290929 0.288804 0.753931
-0.286297 0.287989 0.752513
-0.281869 0.28736 0.751633
-0.276157 0.285388 0.747283
-0.272008 0.284998 0.747114
-0.267694 0.284421 0.746495
-0.262678 0.283071 0.743879
-0.258074 0.282134 0.742371
-0.25334 0.281024 0.740429
-0.249383 0.280757 0.740727
-0.245661 0.280749 0.741731
-0.242008 0.280821 0.74296
-0.241357 0.284434 0.753585
-0.239239 0.286404 0.759886
-0.236912 0.288185 0.765707
-0.23515 0.290722 0.773555
-0.232467 0.292185 0.778563
-0.230184 0.294209 0.785074
-0.227819 0.296196 0.791499
-0.225332 0.298092 0.797686
-0.222107 0.299061 0.801393
-0.219016 0.300249 0.805685
-0.215265 0.30056 0.807612
-0.210651 0.299655 0.806256
0 0 0
-0.182673 0.270022 0.72842
-0.176418 0.26598 0.718421
-0.17218 0.264875 0.716323
-0.167735 0.263399 0.713195
-0.163003 0.261401 0.708623
-0.158976 0.26047 0.706915
-0.154786 0.259225 0.704329
-0.150919 0.258479 0.703072
-0.146691 0.257063 0.699967
-0.142663 0.25594 0.697633
-0.138261 0.254074 0.693246
-0.134089 0.252551 0.689764
-0.130935 0.252914 0.69141
-0.127478 0.252695 0.691446
-0.123694 0.251801 0.689613
-0.119695 0.250406 0.686382
-0.116095 0.249791 0.685265
-0.112515 0.249183 0.684148
-0.10867 0.247934 0.681243
-0.105122 0.247306 0.680026
-0.101739 0.247039 0.679779
-0.0979166 0.245651 0.676426
-0.0944837 0.245178 0.675573
-0.0908823 0.24422 0.673361
-0.087495 0.243787 0.672577
-0.0842061 0.243606 0.672471
-0.0807089 0.242783 0.670575
-0.0768864 0.240874 0.665656
-0.0736612 0.240751 0.665656
-0.0702504 0.239984 0.663855
-0.0670004 0.239718 0.663427
-0.0636556 0.239071 0.661923
-0.0606226 0.239588 0.663629
-0.0572059 0.238562 0.661044
-0.0538307 0.237599 0.658619
-0.0506138 0.237259 0.657903
-0.0472289 0.236035 0.654717
-0.0440563 0.235773 0.654187
-0.0409892 0.236078 0.655218
-0.0377921 0.235624 0.654124
-0.0345611 0.234858 0.652151
-0.0313033 0.23374 0.649186
-0.0282556 0.234117 0.65036
-0.02515 0.234049 0.650284
-0.0218666 0.232074 0.644896
-0.0188034 0.232174 0.645258
-0.0157492 0.232444 0.646083
-0.0125865 0.230856 0.641728
-0.00950677 0.230261 0.64012
-0.00644621 0.229787 0.638834
-0.00339627 0.229182 0.637172
-0.000361783 0.228215 0.634492
0.0026554 0.227959 0.633776
0.00565769 0.227377 0.63214
0.00868767 0.227925 0.633634
0.0116576 0.227022 0.631082
0.0146491 0.226822 0.630471
0.0176065 0.226253 0.628822
0.0205588 0.225792 0.627461
0.0234661 0.225018 0.625215
0.026219 0.223104 0.619793
0.0292208 0.22348 0.620721
0.0322358 0.22388 0.621701
0.0352328 0.224097 0.622161
0.0381536 0.223834 0.621274
0.0410274 0.223353 0.619769
0.0440455 0.223669 0.620464
0.0470719 0.223985 0.621143
0.0498253 0.223042 0.618317
0.0526784 0.222625 0.616939
0.0555232 0.222219 0.615578
0.0586251 0.222831 0.617022
0.0615779 0.222845 0.616795
0.0643719 0.22231 0.615034
0.0671417 0.221741 0.613167
0.069879 0.221117 0.611134
0.0726679 0.2207 0.609659
0.0751721 0.219484 0.605965
0.0785207 0.220732 0.609058
0.0807363 0.21882 0.603417
0.0846071 0.22137 0.610067
0.0873312 0.220851 0.608236
0.0899448 0.220094 0.605738
0.0927595 0.219862 0.604668
0.0956061 0.219717 0.603824
0.0986408 0.220001 0.604138
0.101117 0.219058 0.60107
0.104347 0.219754 0.602484
0.106625 0.218464 0.598438
0.110277 0.219982 0.602064
0.11293 0.21948 0.600144
0.115607 0.219047 0.598396
0.117887 0.217904 0.594695
0.120787 0.217933 0.59418
0.123979 0.218476 0.595047
0.126816 0.218383 0.594163
0.129357 0.217796 0.59192
0.131797 0.217067 0.58928
0.134877 0.217402 0.589511
0.138351 0.218343 0.591368
0.140647 0.217426 0.588175
0.143513 0.217409 0.587405
0.147022 0.218346 0.589196
0.148967 0.216971 0.584735
0.151967 0.217154 0.584464
0.154854 0.217174 0.58374
0.157565 0.216949 0.582347
0.160291 0.216753 0.581024
0.162763 0.216226 0.578808
0.165956 0.216659 0.579153
0.169177 0.217113 0.579546
0.171888 0.216908 0.578177
0.17521 0.217468 0.578841
0.178053 0.217425 0.577898
0.179572 0.215793 0.572738
0.182008 0.215297 0.570606
0.184507 0.214889 0.568719
0.186095 0.213449 0.564113
0 0 0
0 0 0
0.165347 0.181391 0.477438
0.165109 0.178537 0.469319
0.167878 0.178971 0.469868
0.167262 0.175833 0.461072
0.168193 0.174386 0.45675
0.169077 0.17293 0.452439
0.170807 0.172366 0.450498
0.174293 0.173566 0.453197
0.172694 0.169737 0.442806
0.176915 0.171653 0.447446
0.176648 0.169221 0.44079
0.178859 0.169194 0.440442
0.181392 0.169469 0.440922
0.184226 0.170015 0.442151
0.1863 0.169854 0.441588
0.188107 0.169457 0.440456
0.189944 0.169096 0.439466
0.193178 0.169972 0.441739
0.195261 0.169828 0.441409
0.197844 0.170116 0.442253
0.203406 0.17293 0.449716
0 0 0
0 0 0
0 0 0
0 0 0
0 0 0
0 0 0
0 0 0
0.34594 0.269823 0.70631
0.354697 0.273827 0.717717
0.364326 0.278416 0.730757
0 0 0
0 0 0
0 0 0
0 0 0
0.404587 0.294302 0.778877
0.411009 0.296122 0.785191
0 0 0
0 0 0
0 0 0
0 0 0
0 0 0
0 0 0
0 0 0
0 0 0
0 0 0
0 0 0
0 0 0
0 0 0
0 0 0
0 0 0
0 0 0
-0.403942 0.299917 0.783333
-0.402862 0.302043 0.787459
-0.398301 0.301577 0.784884
-0.393562 0.300965 0.782002
-0.389954 0.301214 0.781431
-0.386542 0.301622 0.781339
-0.384467 0.303092 0.784067
-0.381052 0.303525 0.784181
-0.376896 0.303371 0.782857
-0.373189 0.303579 0.782544
-0.368747 0.303187 0.780767
-0.363399 0.302033 0.777114
-0.359151 0.301778 0.775861
-0.357219 0.303485 0.779732
-0.35183 0.30226 0.776155
-0.346658 0.301197 0.773082
-0.340709 0.299426 0.768277
-0.337797 0.300314 0.770383
-0.334246 0.300649 0.771153
-0.329902 0.300269 0.770174
-0.324789 0.299172 0.767437
-0.320138 0.298478 0.765816
-0.315343 0.297632 0.763882
-0.310324 0.29655 0.761418
-0.305739 0.295862 0.760037
-0.303267 0.297226 0.764002
-0.295546 0.293415 0.754726
-0.29157 0.29327 0.75494
-0.287869 0.293402 0.755927
-0.283086 0.292421 0.754099
-0.279146 0.292293 0.754526
-0.273514 0.290368 0.750353
-0.270009 0.290677 0.751997
-0.264898 0.289242 0.749164
-0.260075 0.288085 0.747078
-0.256028 0.287764 0.74719
-0.250976 0.286289 0.744325
-0.246155 0.285037 0.742055
-0.243391 0.286163 0.745996
-0.240269 0.286899 0.748941
-0.239642 0.290684 0.759875
-0.236911 0.291997 0.764374
-0.235337 0.294803 0.772803
-0.232822 0.296503 0.778354
-0.230139 0.298044 0.783496
-0.227796 0.300085 0.789966
-0.225212 0.301876 0.795784
-0.222718 0.303852 0.802098
-0.219542 0.304953 0.806103
-0.215962 0.305523 0.808698
-0.212423 0.306174 0.811499
-0.207148 0.3043 0.807588
0 0 0
-0.177689 0.27144 0.722222
-0.172851 0.269426 0.717751
-0.168931 0.268787 0.71692
-0.16412 0.266674 0.712126
-0.159976 0.265577 0.71002
-0.155984 0.264689 0.708449
-0.151708 0.263269 0.705426
-0.146873 0.260788 0.699531
-0.144327 0.262352 0.704463
-0.14065 0.261886 0.703926
-0.137013 0.261472 0.703509
-0.131827 0.258006 0.694848
-0.128268 0.257628 0.694474
-0.124704 0.257217 0.693991
-0.120905 0.256284 0.692078
-0.117237 0.255586 0.690773
-0.113693 0.255123 0.690084
-0.110277 0.254929 0.690102
-0.106379 0.253576 0.686958
-0.10271 0.252696 0.685074
-0.0988831 0.251358 0.681926
-0.0952812 0.25052 0.68011
-0.0913264 0.248661 0.675501
-0.0881195 0.248776 0.676234
-0.0846532 0.24814 0.674906
-0.0809579 0.246755 0.671522
-0.07745 0.24585 0.669424
-0.0739892 0.245024 0.667518
-0.0710844 0.246046 0.670635
-0.0673168 0.244038 0.665473
-0.0642262 0.244406 0.666774
-0.0608161 0.243534 0.664674
-0.0574394 0.242706 0.662679
-0.0540623 0.24178 0.660397
-0.0508433 0.241489 0.659835
-0.047662 0.241351 0.659677
-0.0443963 0.240736 0.658198
-0.0411604 0.240201 0.656922
-0.0379776 0.239914 0.656309
-0.0347925 0.239559 0.655494
-0.0316153 0.239193 0.654638
-0.0284022 0.238446 0.652724
-0.0251657 0.237294 0.649685
-0.0220256 0.236856 0.648587
-0.0189362 0.236908 0.648817
-0.0158222 0.236612 0.648081
-0.0126563 0.235209 0.644299
-0.00955347 0.234455 0.64228
-0.00649103 0.234447 0.642292
-0.00341781 0.233687 0.640232
-0.000365291 0.233477 0.639666
0.0026659 0.231889 0.635308
0.0057253 0.233139 0.638716
0.00874235 0.232395 0.636647
0.0117647 0.232139 0.635903
0.0147532 0.231457 0.633975
0.0177108 0.230604 0.631572
0.0206845 0.230179 0.630325
0.0235958 0.229256 0.627701
0.0265283 0.228723 0.626134
0.0293715 0.227606 0.622956
0.0325439 0.229011 0.626666
0.0354098 0.228204 0.624311
0.0383451 0.227935 0.623414
0.0411944 0.22723 0.621313
0.0442825 0.227849 0.622817
0.0472727 0.227917 0.622803
0.0500842 0.227167 0.620539
0.052891 0.226481 0.618437
0.0557674 0.22615 0.61729
0.0590003 0.227225 0.619966
0.0617328 0.226362 0.617341
0.0646401 0.22619 0.616585
0.0676688 0.226439 0.616963
0.0702788 0.225325 0.613612
0.0730091 0.22467 0.611501
0.0759773 0.224771 0.611429
0.0790995 0.225302 0.612513
0.0822416 0.225849 0.613624
0.0853887 0.226372 0.614651
0.0882489 0.226125 0.61357
0.0908501 0.225252 0.610776
0.0934629 0.224461 0.608192
0.0962937 0.224226 0.607099
0.0992384 0.224263 0.606725
0.102029 0.223958 0.605413
0.104606 0.223216 0.602903
0.107787 0.223768 0.603871
0.110584 0.223513 0.602646
0.113357 0.223225 0.601313
0.11581 0.222337 0.598353
0.118328 0.221615 0.595824
0.12128 0.221718 0.5955
0.124372 0.222069 0.595823
0.127439 0.222361 0.595968
0.130609 0.222814 0.596529
0.133188 0.222261 0.594379
0.136115 0.2223 0.593796
0.139271 0.222705 0.594176
0.141083 0.220986 0.58888
0.144163 0.221284 0.588946
0.147278 0.221622 0.589104
0.150315 0.221832 0.588909
0.15293 0.221424 0.587058
0.15564 0.221165 0.585596
0.158192 0.220694 0.583565
0.16121 0.220881 0.583265
0.164145 0.220948 0.582641
0.166756 0.220584 0.580875
0.169765 0.220751 0.580504
0.172311 0.220319 0.578556
0.175641 0.220888 0.579236
0.177882 0.220092 0.576339
0.17993 0.219085 0.572901
0.182013 0.218152 0.569668
0.183349 0.216366 0.564227
0 0 0
0 0 0
0 0 0
0.161841 0.179895 0.466653
0.160262 0.17559 0.454925
0.162609 0.175647 0.454535
0.164353 0.175062 0.452504
0.164474 0.172787 0.446143
0.16574 0.17176 0.443041
0.166521 0.170265 0.438769
0.169187 0.170711 0.439535
0.171174 0.17047 0.438563
0.173556 0.170622 0.438643
0.175919 0.170753 0.438706
0.177995 0.170605 0.438092
0.178833 0.169289 0.434526
0.18188 0.17007 0.436384
0.184593 0.170525 0.437449
0.186874 0.170574 0.437519
0.189018 0.170498 0.437316
0.19156 0.170779 0.438076
0.194014 0.170976 0.438668
0.19615 0.170892 0.438587
0.198113 0.17066 0.438176
0.200901 0.171136 0.439629
0.202977 0.171002 0.439566
0 0 0
0.211501 0.174346 0.448879
0 0 0
0 0 0
0 0 0
0 0 0
0 0 0
0 0 0
0 0 0
0 0 0
0 0 0
0 0 0
0.401509 0.295928 0.774022
0.405383 0.295934 0.775549
0 0 0
0 0 0
0 0 0
0 0 0
0 0 0
0 0 0
0 0 0
0 0 0
0 0 0
0 0 0
0 0 0
0 0 0
0 0 0
0 0 0
0 0 0
-0.401933 0.302322 0.780529
-0.403254 0.306286 0.789294
-0.40108 0.307648 0.791394
-0.395473 0.306377 0.786786
-0.390681 0.305718 0.783828
-0.386741 0.305719 0.782635
-0.385026 0.307497 0.786055
-0.382837 0.30893 0.788655
-0.380542 0.310306 0.791179
-0.375469 0.309423 0.788014
-0.371157 0.309153 0.786498
-0.365492 0.30774 0.782155
-0.361606 0.307809 0.781664
-0.357656 0.307825 0.781121
-0.354368 0.308418 0.782124
-0.346569 0.305053 0.773176
-0.341233 0.303804 0.769683
-0.338645 0.305 0.772467
-0.335957 0.306134 0.775176
-0.331407 0.305578 0.773687
-0.326257 0.304448 0.77083
-0.32143 0.303597 0.768757
-0.317038 0.30314 0.767762
-0.312694 0.302718 0.766931
-0.3092 0.303118 0.768261
-0.304924 0.302754 0.767724
-0.298702 0.300422 0.762263
-0.292636 0.298188 0.757111
-0.288343 0.297724 0.756511
-0.285379 0.298639 0.759478
-0.280534 0.297584 0.757486
-0.27574 0.296554 0.755608
-0.270441 0.294945 0.752293
-0.265748 0.29396 0.750607
-0.261579 0.293534 0.750384
-0.257098 0.292741 0.749253
-0.253196 0.292593 0.749802
-0.249144 0.292266 0.749915
-0.244132 0.290784 0.747084
-0.242194 0.292975 0.75371
-0.238459 0.293026 0.754856
-0.237417 0.296443 0.764696
-0.234909 0.298111 0.77005
-0.232271 0.299665 0.77513
-0.229991 0.301742 0.781577
-0.227948 0.304208 0.789045
-0.226 0.306889 0.797089
-0.223864 0.309405 0.804717
-0.220452 0.310217 0.80792
-0.217027 0.31104 0.811145
-0.21341 0.311614 0.813716
-0.209611 0.311939 0.815625
0 0 0
0 0 0
-0.174255 0.275161 0.722187
-0.170491 0.274812 0.722149
-0.165909 0.273103 0.71851
-0.161468 0.271555 0.71527
-0.157658 0.271024 0.714684
-0.153959 0.270664 0.714525
-0.149315 0.268588 0.709812
-0.145398 0.267751 0.708345
-0.141706 0.267298 0.707873
-0.137344 0.265528 0.703887
-0.133754 0.265197 0.703689
-0.130024 0.264564 0.702671
-0.126347 0.264009 0.701834
-0.121849 0.26166 0.696203
-0.11807 0.260764 0.694412
-0.114694 0.26073 0.694894
-0.110798 0.259478 0.692109
-0.106908 0.258164 0.689131
-0.103455 0.257854 0.688815
-0.0997695 0.256924 0.686819
-0.09581 0.2552 0.682679
-0.0921978 0.254312 0.680752
-0.0884608 0.253002 0.677671
-0.0852196 0.253063 0.678245
-0.0818127 0.252618 0.677445
-0.0779987 0.250826 0.673012
-0.0747325 0.250717 0.673076
-0.0714047 0.250383 0.672517
-0.0682641 0.250704 0.673702
-0.0644445 0.24844 0.66792
-0.0610433 0.247636 0.666045
-0.0576413 0.24674 0.663904
-0.0543874 0.24641 0.663271
-0.0510423 0.245601 0.661329
-0.0477976 0.245199 0.66047
-0.0446063 0.245034 0.660233
-0.0413091 0.244218 0.658226
-0.0380722 0.243653 0.656878
-0.0348976 0.243421 0.656415
-0.0316879 0.242874 0.655086
-0.0284815 0.242235 0.653497
-0.0253071 0.241745 0.652291
-0.0221787 0.241617 0.652052
-0.0189591 0.240292 0.648565
-0.0158246 0.23974 0.647151
-0.0127303 0.239675 0.647038
-0.00960921 0.238903 0.645002
-0.00651049 0.238221 0.643196
-0.00343751 0.238104 0.642902
-0.00036698 0.237621 0.641605
0.00269242 0.237254 0.640612
0.0057473 0.237092 0.640154
0.00881818 0.237472 0.64115
0.0118421 0.236719 0.63907
0.014881 0.236511 0.638452
0.0178058 0.234869 0.633948
0.0207852 0.234321 0.632383
0.0237953 0.234214 0.631996
0.0267363 0.233527 0.630032
0.0297017 0.233171 0.628947
0.0327496 0.233468 0.62961
0.0357277 0.23326 0.628897
0.0385889 0.23238 0.62636
0.0414627 0.231697 0.624341
0.0445193 0.232059 0.625123
0.0475393 0.232196 0.625287
0.0504681 0.231898 0.624265
0.053264 0.231057 0.621766
0.0564345 0.231844 0.623634
0.0589629 0.230047 0.618537
0.0621943 0.231033 0.62091
0.0650239 0.230505 0.619198
0.0677997 0.22984 0.617106
0.0706563 0.229494 0.615854
0.0735272 0.22922 0.614783
0.0764423 0.2291 0.614108
0.0795063 0.229418 0.614592
0.0826314 0.229884 0.615455
0.0856828 0.230119 0.615682
0.0885696 0.229911 0.614709
0.0911233 0.22888 0.611521
0.0938603 0.22836 0.609683
0.096664 0.228028 0.608335
0.0994753 0.227734 0.60707
0.102551 0.228045 0.607402
0.105714 0.228527 0.608173
0.108201 0.227561 0.605071
0.111333 0.227967 0.605603
0.113763 0.22695 0.602341
0.11676 0.227088 0.602128
0.119261 0.226278 0.599388
0.121734 0.225455 0.596599
0.125393 0.226816 0.599574
0.128154 0.226529 0.598169
0.130958 0.226327 0.596978
0.134294 0.227034 0.598166
0.13727 0.227114 0.597686
0.139611 0.226163 0.594479
0.142522 0.226156 0.593743
0.145374 0.226056 0.592749
0.148284 0.22605 0.591991
0.151183 0.226026 0.591172
0.153916 0.225761 0.589714
0.155938 0.224481 0.5856
0.1602 0.226415 0.589858
0.162189 0.225124 0.585705
0.165107 0.225145 0.584966
0.167907 0.225007 0.583809
0.170358 0.224415 0.581474
0.173487 0.22472 0.581464
0.175501 0.223595 0.577757
0.177726 0.222771 0.574841
0.179495 0.22141 0.570554
0 0 0
0 0 0
0 0 0
0 0 0
0.156153 0.178429 0.456811
0.157913 0.177821 0.454706
0.158852 0.176319 0.45034
0.159476 0.174513 0.445233
0.161644 0.174425 0.444537
0.163129 0.173612 0.442023
0.163021 0.171149 0.435346
0.164846 0.170753 0.433967
0.168043 0.171771 0.436212
0.170405 0.17192 0.436284
0.171733 0.171035 0.43377
0.172573 0.169693 0.43014
0.174093 0.169045 0.428311
0.176609 0.169368 0.428985
0.180594 0.171074 0.433205
0.18339 0.171626 0.434545
0.18499 0.17106 0.4331
0.187666 0.17149 0.434221
0.190089 0.171682 0.434788
0.192581 0.17193 0.435544
0.194407 0.171585 0.434845
0.196973 0.171894 0.43585
0.198916 0.171658 0.435519
0.199909 0.170617 0.43319
0.201759 0.170321 0.432798
0.20513 0.171303 0.435697
0.210381 0.173817 0.442547
0 0 0
0 0 0
0 0 0
0 0 0
0 0 0
0 0 0
0 0 0
0 0 0
0.372797 0.28106 0.725306
0 0 0
0 0 0
0 0 0
0 0 0
0 0 0
0 0 0
0 0 0
0 0 0
0 0 0
0 0 0
0 0 0
0 0 0
0 0 0
0 0 0
0 0 0
0 0 0
0 0 0
-0.416802 0.317548 0.810579
-0.404311 0.311049 0.79248
-0.400624 0.31126 0.79157
-0.39655 0.311171 0.789964
-0.388918 0.308262 0.781275
-0.387482 0.310254 0.785079
-0.383601 0.310309 0.784042
-0.381728 0.312006 0.787221
-0.380114 0.313953 0.791091
-0.377163 0.314826 0.792319
-0.370691 0.312747 0.786199
-0.365331 0.31157 0.782435
-0.360806 0.311088 0.780497
-0.3593 0.313227 0.785212
-0.354737 0.312719 0.783371
-0.349561 0.311653 0.780214
-0.344532 0.310695 0.777414
-0.341588 0.311618 0.779402
-0.337546 0.311547 0.778988
-0.333333 0.311317 0.778256
-0.328071 0.310088 0.775111
-0.323002 0.309015 0.772436
-0.318708 0.308666 0.771649
-0.314475 0.308367 0.771066
-0.309931 0.307753 0.769769
-0.30374 0.305466 0.764359
-0.299856 0.30547 0.764749
-0.295746 0.305241 0.764625
-0.290786 0.304118 0.762321
-0.286312 0.303478 0.761289
-0.281931 0.302922 0.760523
-0.276799 0.301532 0.757712
-0.272099 0.300579 0.756047
-0.267587 0.29981 0.754884
-0.26532 0.301571 0.760137
-0.260711 0.300683 0.758753
-0.254763 0.2982 0.753369
-0.250568 0.297726 0.753083
-0.246165 0.296985 0.752144
-0.24218 0.296734 0.752464
-0.239135 0.297646 0.755755
-0.237337 0.300164 0.763149
-0.234974 0.302037 0.768933
-0.232876 0.30432 0.77578
-0.229682 0.305222 0.779125
-0.229195 0.309816 0.791917
-0.227324 0.312666 0.800278
-0.224403 0.314148 0.805146
-0.221057 0.315079 0.808607
-0.217881 0.316289 0.812786
-0.214573 0.317351 0.816581
-0.210523 0.317336 0.817598
-0.206073 0.316705 0.817012
0 0 0
-0.175827 0.281224 0.727288
-0.17139 0.279823 0.724543
-0.167397 0.279104 0.72354
-0.162878 0.277459 0.720113
-0.159324 0.277419 0.720829
-0.155241 0.276437 0.719079
-0.151035 0.275184 0.716598
-0.146248 0.272789 0.711112
-0.142617 0.272486 0.711056
-0.13896 0.272116 0.710803
-0.134129 0.269369 0.704316
-0.130745 0.269462 0.705226
-0.127059 0.268919 0.704452
-0.122906 0.267332 0.70092
-0.119134 0.266504 0.699352
-0.115542 0.266045 0.698729
-0.111607 0.264744 0.695873
-0.107309 0.262473 0.690441
-0.103964 0.262463 0.690933
-0.100757 0.262813 0.692354
-0.0968147 0.261201 0.688587
-0.0925207 0.258493 0.681903
-0.0888998 0.257535 0.679813
-0.0858079 0.258095 0.68171
-0.0825328 0.258127 0.682195
-0.0789891 0.257286 0.680356
-0.0753619 0.256088 0.677553
-0.0720061 0.255747 0.676997
-0.0688766 0.256215 0.678566
-0.0654405 0.255532 0.67707
-0.061853 0.254156 0.673719
-0.0582191 0.252426 0.669411
-0.0547491 0.251247 0.666543
-0.0515365 0.251176 0.666599
-0.0482833 0.250884 0.666053
-0.0447105 0.248773 0.66066
-0.0415484 0.248799 0.660926
-0.0382129 0.247706 0.658202
-0.0349338 0.246815 0.655998
-0.0317652 0.246605 0.655592
-0.0285812 0.246217 0.654695
-0.025391 0.245673 0.653369
-0.0222686 0.245724 0.653612
-0.0190939 0.245121 0.6521
-0.015893 0.243879 0.648875
-0.0127753 0.243624 0.648258
-0.00965568 0.243153 0.647056
-0.00653771 0.242301 0.644825
-0.0034481 0.241917 0.643825
-0.000368737 0.241836 0.643619
0.0027029 0.241249 0.64205
0.00577007 0.2411 0.641634
0.00882652 0.240762 0.640703
0.0119017 0.240978 0.641231
0.0149414 0.240532 0.639987
0.0179941 0.240413 0.639597
0.0209161 0.238837 0.635316
0.0239031 0.238307 0.633807
0.0268621 0.23765 0.631946
0.0298764 0.237566 0.631595
0.0331146 0.239114 0.635566
0.0361304 0.23893 0.634922
0.0389256 0.237429 0.630765
0.041884 0.237069 0.629623
0.0449206 0.237169 0.629692
0.0478192 0.236574 0.627901
0.0507428 0.236166 0.626592
0.0537289 0.236079 0.62612
0.0565757 0.235421 0.62412
0.0595873 0.235481 0.624008
0.0624472 0.234963 0.622353
0.065346 0.234633 0.62118
0.0682346 0.234297 0.619976
0.0708759 0.233175 0.61668
0.0741422 0.234117 0.618826
0.0771767 0.234283 0.618903
0.0799097 0.233555 0.616604
0.0829821 0.233835 0.616953
0.0860203 0.234004 0.616988
0.0888511 0.233615 0.61554
0.091795 0.23354 0.614901
0.0940548 0.231783 0.609822
0.0971089 0.232031 0.610004
0.100151 0.232237 0.610056
0.103171 0.23238 0.609928
0.10612 0.232362 0.609359
0.109129 0.232472 0.609108
0.111821 0.231918 0.607103
0.114442 0.231249 0.604782
0.117283 0.231046 0.603667
0.120299 0.231192 0.603445
0.123122 0.230966 0.602238
0.12594 0.230743 0.601023
0.128776 0.230563 0.599906
0.131874 0.230849 0.599986
0.135161 0.231446 0.600857
0.138002 0.231269 0.599703
0.140888 0.231175 0.59875
0.143489 0.230626 0.596609
0.146534 0.230798 0.596319
0.149141 0.230288 0.594258
0.151926 0.230066 0.592933
0.154422 0.229423 0.590515
0.156873 0.22874 0.587989
0.159961 0.228992 0.587864
0.162952 0.229099 0.587358
0.165535 0.228639 0.585395
0.16824 0.228361 0.583898
0.17115 0.228365 0.583125
0.173339 0.227423 0.57994
0.175344 0.226275 0.576239
0 0 0
0 0 0
0 0 0
0.152616 0.184804 0.468175
0 0 0
0.152796 0.179488 0.453588
0.154112 0.178368 0.450223
0.154486 0.176205 0.444257
0.156363 0.175794 0.442738
0.157787 0.174892 0.44001
0.158537 0.173278 0.435524
0.159626 0.172075 0.432106
0.162099 0.172375 0.432495
0.163481 0.171523 0.430026
0.166504 0.172393 0.431907
0.168905 0.172604 0.432174
0.17107 0.172571 0.431868
0.171633 0.170945 0.427614
0.173636 0.170775 0.427046
0.175447 0.170422 0.426065
0.17738 0.170195 0.42544
0.181203 0.171766 0.429351
0.182915 0.171322 0.42827
0.18473 0.170983 0.4275
0.187012 0.17108 0.427861
0.190123 0.171924 0.430137
0.192971 0.172513 0.431824
0.19545 0.172764 0.43271
0.196228 0.171521 0.429899
0.197128 0.170412 0.427463
0.199497 0.170583 0.428281
0.202524 0.171307 0.430531
0.207039 0.173261 0.435922
0.209578 0.173537 0.437143
0 0 0
0 0 0
0 0 0
0 0 0
0 0 0
0 0 0
0 0 0
0 0 0
0 0 0
0 0 0
0 0 0
0 0 0
0 0 0
0 0 0
0 0 0
0 0 0
0 0 0
0 0 0
0 0 0
0 0 0
0 0 0
0 0 0
0 0 0
0 0 0
0 0 0
-0.406443 0.313598 0.791622
-0.406568 0.316766 0.798067
-0.401694 0.316063 0.794809
-0.394223 0.313283 0.786404
-0.386283 0.31007 0.777004
-0.381682 0.3095 0.774306
-0.379655 0.311026 0.776916
-0.380266 0.314768 0.785108
-0.381202 0.31886 0.794216
-0.375918 0.317781 0.790508
-0.37044 0.316513 0.786411
-0.364099 0.314472 0.780478
-0.360533 0.314809 0.780529
-0.359027 0.316973 0.785179
-0.355777 0.317628 0.786166
-0.349995 0.316012 0.781614
-0.346261 0.316229 0.781677
-0.343109 0.316989 0.783164
-0.338843 0.316726 0.782201
-0.334665 0.316539 0.781509
-0.330265 0.316136 0.780364
-0.325331 0.315204 0.777996
-0.320295 0.314151 0.775405
-0.315348 0.313159 0.773045
-0.310273 0.312014 0.770381
-0.305269 0.310912 0.767894
-0.300491 0.310014 0.765982
-0.297978 0.31146 0.769932
-0.292884 0.31021 0.767284
-0.287853 0.308995 0.764781
-0.282983 0.307921 0.762684
-0.280945 0.309944 0.768314
-0.27403 0.306566 0.760607
-0.269997 0.306361 0.760815
-0.265873 0.306046 0.760794
-0.261999 0.306014 0.761516
-0.256531 0.304091 0.757564
-0.251599 0.302756 0.755101
-0.247368 0.302236 0.754693
-0.242268 0.300621 0.751575
-0.241081 0.303887 0.760683
-0.237932 0.304746 0.763799
-0.23541 0.306449 0.769051
-0.233606 0.309159 0.776859
-0.231343 0.311342 0.783368
-0.229174 0.31373 0.790411
-0.226829 0.315957 0.797069
-0.224329 0.318042 0.803383
-0.22126 0.319381 0.807822
-0.218027 0.320531 0.811783
-0.215311 0.322497 0.817817
-0.211416 0.322738 0.819474
-0.206888 0.322004 0.818645
-0.202085 0.320805 0.816612
0 0 0
-0.172295 0.284881 0.726935
-0.168045 0.283751 0.724909
-0.163987 0.282902 0.723582
-0.159681 0.28158 0.721022
-0.155844 0.281042 0.720445
-0.151718 0.279947 0.718423
-0.146876 0.277447 0.712764
-0.143751 0.278148 0.715305
-0.139737 0.277119 0.713378
-0.135641 0.275873 0.710868
-0.131443 0.274349 0.707616
-0.127583 0.273465 0.705988
-0.123755 0.272603 0.704398
-0.119781 0.271363 0.701803
-0.116781 0.27232 0.704872
-0.111695 0.268325 0.695097
-0.108517 0.268808 0.696897
-0.104812 0.267972 0.695257
-0.101211 0.267355 0.694167
-0.0976881 0.266912 0.693505
-0.0937676 0.265311 0.689813
-0.0894672 0.262478 0.68289
-0.0862553 0.262743 0.684007
-0.0829332 0.26268 0.684253
-0.0795813 0.262514 0.684211
-0.0759503 0.261373 0.681609
-0.0726678 0.261382 0.681988
-0.0691544 0.260523 0.680083
-0.0656618 0.25966 0.678149
-0.0622293 0.258957 0.676614
-0.0588739 0.258515 0.675744
-0.0554052 0.257494 0.673344
-0.0519401 0.256365 0.67064
-0.0484001 0.254692 0.666498
-0.0449348 0.253203 0.662818
-0.0416338 0.252484 0.661135
-0.0385162 0.252851 0.662279
-0.0352861 0.252477 0.661472
-0.0322103 0.253243 0.663634
-0.0290431 0.25338 0.664133
-0.0255793 0.250645 0.657089
-0.0223626 0.249902 0.655249
-0.0192312 0.250026 0.65567
-0.0160135 0.248857 0.652682
-0.0128457 0.248084 0.65072
-0.00970551 0.247519 0.64929
-0.00657926 0.246945 0.64782
-0.00349048 0.248007 0.65063
-0.000370152 0.245854 0.644992
0.00271815 0.245698 0.644577
0.00576704 0.24404 0.640208
0.00886598 0.244916 0.642473
0.0119404 0.244837 0.642218
0.0150297 0.245034 0.642673
0.0180521 0.244259 0.640565
0.0210254 0.24314 0.637543
0.0240551 0.242876 0.636748
0.027164 0.243381 0.637954
0.0301401 0.242713 0.636072
0.0332111 0.242863 0.636319
0.0362265 0.242615 0.63551
0.0392095 0.242205 0.634264
0.0421368 0.241535 0.632321
0.0451439 0.241382 0.631718
0.0480653 0.240819 0.630027
0.0509341 0.240075 0.627849
0.0538765 0.239741 0.626731
0.056979 0.240117 0.627454
0.0598003 0.23933 0.625123
0.0628707 0.239568 0.625453
0.0660036 0.240011 0.626304
0.068627 0.238644 0.622415
0.071473 0.238133 0.620747
0.0743375 0.237722 0.619325
0.0773255 0.237722 0.61896
0.0803349 0.237786 0.618743
0.0835592 0.238459 0.620094
0.0864841 0.23826 0.619161
0.0894922 0.238296 0.618822
0.0923103 0.23784 0.61719
0.0952492 0.237714 0.6164
0.0978903 0.236875 0.613745
0.100677 0.236429 0.612094
0.103556 0.236218 0.611035
0.106555 0.236285 0.610681
0.109478 0.236182 0.609871
0.112485 0.236264 0.609521
0.115073 0.235484 0.606934
0.117848 0.235114 0.605389
0.121074 0.235643 0.606143
0.124028 0.235628 0.605481
0.126758 0.235198 0.603738
0.129679 0.235134 0.602922
0.133172 0.236087 0.604693
0.135588 0.235131 0.601563
0.138685 0.235373 0.601485
0.141547 0.235212 0.600365
0.144154 0.234644 0.598196
0.146918 0.234348 0.596713
0.149891 0.234392 0.596083
0.152594 0.234018 0.594384
0.155223 0.233549 0.592437
0.15726 0.232222 0.588313
0.159999 0.231962 0.586894
0.162954 0.232019 0.58627
0.165517 0.231524 0.584252
0.168219 0.231238 0.582765
0.170733 0.230709 0.580669
0.169457 0.225159 0.565961
0 0 0
0 0 0
0.149723 0.189448 0.474364
0.147625 0.183869 0.459821
0.14858 0.182206 0.455107
0.14866 0.179537 0.447906
0.150036 0.178489 0.444779
0.151579 0.177668 0.442242
0.15301 0.176742 0.439469
0.153932 0.175263 0.435349
0.155261 0.174282 0.432498
0.156579 0.173316 0.429717
0.158055 0.172549 0.427464
0.159879 0.172178 0.426223
0.162705 0.172882 0.427675
0.164881 0.172885 0.427428
0.167508 0.173355 0.428372
0.169029 0.172683 0.426533
0.171077 0.172559 0.426086
0.173038 0.172352 0.425475
0.17428 0.171443 0.423174
0.177055 0.172046 0.424646
0.178734 0.171582 0.423528
0.180956 0.171644 0.423751
0.183344 0.17186 0.4244
0.185586 0.171936 0.424746
0.187649 0.171846 0.424727
0.189628 0.171682 0.424568
0.192725 0.172524 0.42694
0.193762 0.171522 0.424795
0.194944 0.170669 0.423057
0.197219 0.170782 0.423752
0.199935 0.17127 0.425422
0.202448 0.171575 0.426683
0.204489 0.171478 0.426983
0.207298 0.172021 0.428916
0.208 0.170822 0.426545
0.215947 0.175536 0.438989
0 0 0
0 0 0
0 0 0
0 0 0
0 0 0
0 0 0
0 0 0
0 0 0
0 0 0
0 0 0
0 0 0
0 0 0
0 0 0
0 0 0
0 0 0
0 0 0
0 0 0
0 0 0
0 0 0
0 0 0
0 0 0
0 0 0
-0.400711 0.313061 0.781668
-0.403798 0.318562 0.793829
-0.399775 0.318507 0.792176
-0.394293 0.317277 0.787665
-0.389299 0.316419 0.784148
-0.381238 0.313025 0.774429
-0.380589 0.31571 0.779816
-0.383947 0.321809 0.793669
-0.383643 0.324935 0.800223
-0.378233 0.323756 0.796241
-0.369935 0.320054 0.78614
-0.364053 0.318384 0.78112
-0.362433 0.320445 0.785329
-0.362219 0.323811 0.792794
-0.356416 0.322198 0.788144
-0.350148 0.320124 0.782452
-0.346275 0.320217 0.782139
-0.343171 0.321031 0.783665
-0.339691 0.321509 0.784449
-0.335804 0.321608 0.784385
-0.331541 0.321345 0.78352
-0.326786 0.320594 0.781542
-0.321727 0.319521 0.778861
-0.318084 0.319846 0.779664
-0.313149 0.318864 0.777357
-0.307032 0.316638 0.772089
-0.302338 0.315839 0.770373
-0.298171 0.315578 0.770036
-0.293983 0.315288 0.769695
-0.288778 0.313885 0.766701
-0.286022 0.31514 0.770262
-0.282088 0.315116 0.770755
-0.277346 0.314174 0.769059
-0.270987 0.311349 0.762795
-0.266521 0.310648 0.761775
-0.262365 0.310294 0.761648
-0.258766 0.310596 0.763174
-0.253408 0.308765 0.759489
-0.249217 0.308322 0.759246
-0.245519 0.308484 0.76052
-0.24202 0.308905 0.762459
-0.238613 0.309459 0.764752
-0.235707 0.310693 0.768747
-0.233299 0.312634 0.774518
-0.231749 0.31581 0.783376
-0.229512 0.318143 0.790169
-0.226551 0.319536 0.794646
-0.224075 0.321675 0.800991
-0.221362 0.323546 0.806682
-0.218695 0.325553 0.812723
-0.215609 0.327002 0.817378
-0.212162 0.327947 0.820773
-0.208289 0.328258 0.822577
-0.204213 0.328257 0.823589
0 0 0
-0.175057 0.293087 0.737125
-0.169683 0.290118 0.730519
-0.16469 0.287687 0.725237
-0.160959 0.2874 0.725339
-0.156365 0.285527 0.721414
-0.15251 0.284945 0.72073
-0.1486 0.284231 0.719688
-0.144422 0.282958 0.71721
-0.140497 0.282129 0.715832
-0.136275 0.280645 0.712771
-0.132323 0.279656 0.710941
-0.128244 0.278337 0.708247
-0.125157 0.279158 0.710979
-0.121465 0.278638 0.710279
-0.116594 0.275302 0.702373
-0.113712 0.276604 0.706275
-0.109898 0.275648 0.704394
-0.105789 0.273869 0.700384
-0.101987 0.272792 0.698147
-0.0980511 0.271271 0.694752
-0.0945228 0.27081 0.694045
-0.0908953 0.270019 0.692476
-0.0873258 0.269347 0.691191
-0.0836064 0.268141 0.688512
-0.0802622 0.268088 0.688776
-0.0767847 0.267566 0.687816
-0.0733455 0.267136 0.687074
-0.0695473 0.265296 0.682685
-0.0658704 0.263758 0.679054
-0.0626 0.263773 0.6794
-0.0591106 0.262816 0.677225
-0.055693 0.262085 0.675613
-0.0523643 0.261707 0.674895
-0.0488824 0.260463 0.671926
-0.045732 0.260934 0.673365
-0.0424689 0.260786 0.67319
-0.0391953 0.260543 0.672754
-0.0358675 0.259863 0.671172
-0.0323587 0.257608 0.665509
-0.0291344 0.257371 0.66504
-0.0260459 0.258425 0.667891
-0.022641 0.256194 0.662237
-0.0193505 0.254739 0.658574
-0.0161573 0.254248 0.657386
-0.012942 0.253084 0.654444
-0.00975554 0.251922 0.651491
-0.00664658 0.252607 0.6533
-0.0035158 0.252946 0.6542
-0.000374524 0.251885 0.651465
0.0027408 0.25086 0.648808
0.00584925 0.25063 0.648194
0.00896349 0.250722 0.648398
0.0120752 0.250713 0.648328
0.0151172 0.249559 0.645279
0.018193 0.249259 0.644427
0.0212165 0.248435 0.642204
0.0242526 0.247947 0.64084
0.0272637 0.247344 0.639161
0.0303825 0.24774 0.64005
0.0333858 0.247209 0.638528
0.0363389 0.246426 0.636344
0.0392996 0.245813 0.634583
0.0423815 0.245991 0.634851
0.0452176 0.244815 0.63161
0.0480963 0.244003 0.629294
0.0511072 0.243918 0.62884
0.0542401 0.244392 0.629812
0.0573838 0.244862 0.630757
0.0602972 0.244352 0.62916
0.0631588 0.24369 0.627161
0.0663743 0.244393 0.628656
0.0692903 0.243979 0.627263
0.0718341 0.242344 0.622719
0.0744895 0.241202 0.619428
0.0775098 0.241284 0.619267
0.0807565 0.242038 0.620814
0.0837746 0.242078 0.620511
0.0868581 0.242298 0.620652
0.0898351 0.242215 0.620002
0.0929524 0.242505 0.620286
0.0957589 0.24199 0.618499
0.0983956 0.241091 0.615715
0.101174 0.240581 0.613911
0.104291 0.240883 0.614164
0.107102 0.240482 0.612608
0.110024 0.240344 0.611705
0.11295 0.240223 0.610831
0.115979 0.240321 0.610498
0.118489 0.239364 0.607473
0.121629 0.239698 0.607709
0.124598 0.239685 0.607048
0.127634 0.2398 0.606698
0.130744 0.240045 0.60666
0.133131 0.238981 0.6033
0.136402 0.239516 0.603969
0.139352 0.239477 0.603173
0.142048 0.239011 0.601293
0.144663 0.238432 0.599121
0.14732 0.237943 0.597169
0.150195 0.237818 0.596121
0.153245 0.237971 0.595764
0.156219 0.238002 0.595093
0.158156 0.236481 0.59054
0.161081 0.236465 0.589748
0.162868 0.234811 0.584874
0.165313 0.234146 0.58247
0.166761 0.232115 0.576679
0 0 0
0 0 0
0 0 0
0.144508 0.18814 0.465077
0.144985 0.185758 0.458632
0.14595 0.184068 0.453919
0.147428 0.183066 0.450924
0.147562 0.180451 0.443985
0.148752 0.179186 0.440394
0.150771 0.178943 0.439342
0.150584 0.176127 0.431999
0.152658 0.175997 0.43128
0.154369 0.175459 0.429586
0.156029 0.174878 0.427819
0.157357 0.173947 0.425229
0.159269 0.173677 0.42429
0.161552 0.173814 0.424377
0.1635 0.173592 0.423623
0.165334 0.173255 0.422628
0.167632 0.173408 0.422864
0.170698 0.174341 0.425042
0.171655 0.173124 0.422019
0.173496 0.172817 0.421254
0.174533 0.171727 0.418622
0.176287 0.17136 0.417796
0.178867 0.171795 0.418966
0.180221 0.171056 0.417315
0.183195 0.171854 0.419458
0.185849 0.172337 0.420875
0.188276 0.172601 0.421802
0.190698 0.172854 0.422744
0.192289 0.172357 0.421893
0.193547 0.171576 0.420385
0.195712 0.171607 0.420907
0.198329 0.172029 0.422429
0.199585 0.171275 0.421099
0.202118 0.171621 0.422513
0.20366 0.171126 0.421894
0.206106 0.171393 0.423191
0.209394 0.172349 0.426226
0.213063 0.173595 0.430026
0 0 0
0 0 0
0 0 0
0 0 0
0 0 0
0 0 0
0 0 0
0 0 0
0 0 0
0 0 0
0 0 0
0 0 0
0 0 0
0 0 0
0 0 0
0 0 0
0 0 0
0 0 0
0 0 0
0 0 0
0 0 0
-0.387483 0.306484 0.757074
-0.390724 0.312074 0.769328
-0.396125 0.319516 0.786137
