ply
format ascii 1.0
comment Generated by sampleExportPLY
element vertex 1908
property float x
property float y
property float z
element face 0
property list uchar int vertex_index
end_header
-0.174941 0.215923 0.681286
-0.171259 0.215434 0.680585
-0.166501 0.213546 0.675433
-0.162288 0.212295 0.672261
-0.159146 0.212424 0.673431
-0.155264 0.21155 0.671396
-0.152272 0.211875 0.673145
-0.148457 0.211045 0.6712
-0.144334 0.209733 0.66769
-0.140871 0.209339 0.66708
-0.137341 0.208828 0.66607
-0.133735 0.208172 0.664576
-0.129916 0.207146 0.661875
-0.126573 0.206845 0.661468
-0.122876 0.205937 0.659096
-0.119526 0.205578 0.658458
-0.116607 0.205959 0.660173
-0.113051 0.205207 0.658233
-0.109803 0.204987 0.657985
-0.105996 0.203679 0.65422
-0.102453 0.202816 0.651864
-0.0990681 0.20222 0.650347
-0.0959851 0.202223 0.650737
-0.092432 0.201203 0.647818
-0.089269 0.200991 0.647483
-0.0862746 0.201157 0.64835
-0.0826661 0.19985 0.644455
-0.0793533 0.199186 0.642614
-0.0762854 0.199108 0.642648
-0.0731668 0.198886 0.642204
-0.0694691 0.197002 0.636377
-0.0664002 0.196812 0.636006
-0.0631105 0.195919 0.633347
-0.0600059 0.195539 0.632337
-0.056554 0.19393 0.627334
-0.0531859 0.192445 0.622722
-0.0496825 0.190269 0.615856
-0.047034 0.191301 0.61936
-0.0444539 0.192765 0.624255
-0.0413656 0.192077 0.622171
-0.0383711 0.191753 0.621254
-0.0352416 0.190644 0.617786
-0.0323003 0.190447 0.617258
-0.0294174 0.190588 0.617817
-0.0264303 0.190012 0.61604
-0.0233688 0.188693 0.611844
-0.0204649 0.188454 0.611143
-0.0175399 0.187912 0.609444
-0.0145124 0.185845 0.602793
-0.0116175 0.184885 0.599722
-0.0086349 0.181466 0.588664
0 0 0
0 0 0
-0.000274689 0.150344 0.487742
0.00198059 0.147527 0.478601
0.00422955 0.147486 0.478457
0.00654599 0.14901 0.483383
0.00879727 0.148647 0.482181
0.0110612 0.148603 0.482007
0.013344 0.148785 0.482556
0.0156114 0.148766 0.482449
0.0180048 0.149801 0.48575
0.020385 0.150505 0.48797
0.022672 0.150448 0.487717
0.0249475 0.150333 0.487264
0.0271505 0.149836 0.485569
0.0295161 0.150245 0.486798
0.031739 0.149921 0.485646
0.0339821 0.149729 0.484914
0.0362458 0.149646 0.484528
0.0384834 0.149472 0.483836
0.0416279 0.152643 0.493961
0 0 0
0 0 0
0.057545 0.180691 0.584169
0.060376 0.180916 0.584688
0.0630691 0.180726 0.583854
0.0655885 0.180075 0.581519
0.0682282 0.179793 0.580367
0.0711188 0.180169 0.581324
0.0740624 0.180646 0.582594
0.0768036 0.180613 0.582205
0.0794614 0.180393 0.5812
0.0822615 0.1805 0.581235
0.0851216 0.180727 0.581644
0.0875886 0.180132 0.579392
0.089945 0.179352 0.576534
0.0927745 0.179534 0.576755
0.0960588 0.18056 0.57967
0.0983436 0.179703 0.576523
0.101493 0.180429 0.578441
0.104123 0.180219 0.577337
0.106554 0.179683 0.575177
0.109022 0.179235 0.573285
0.1115 0.178824 0.571497
0.113994 0.178459 0.569838
0.117003 0.178898 0.570731
0.119611 0.178717 0.569628
0.122531 0.179001 0.569987
0.125361 0.179143 0.569876
0.127471 0.178273 0.566531
0.130264 0.178374 0.566253
0.133083 0.178506 0.566053
0.135939 0.178681 0.565974
0.138386 0.178323 0.564184
0.141592 0.178937 0.565452
0.144589 0.17927 0.565806
0.146914 0.178772 0.563522
0.149379 0.178458 0.561803
0.152142 0.178507 0.561208
0.154542 0.178135 0.559272
0.157592 0.178512 0.559672
0.159937 0.178092 0.557553
0.163027 0.178501 0.558014
0.165757 0.178508 0.557202
0.168542 0.178575 0.556558
0.171125 0.178428 0.555236
0.173778 0.178357 0.554138
0.176529 0.178389 0.553346
0.179111 0.178251 0.552017
0.182397 0.178806 0.552827
0.185718 0.17938 0.553681
0.190041 0.180891 0.557409
0 0 0
0.280874 0.259807 0.797892
0.286649 0.26146 0.801618
0.293543 0.264074 0.808276
0.298835 0.265196 0.81036
0 0 0
0 0 0
0.340192 0.290117 0.882219
0.343687 0.289334 0.878478
0.351344 0.292031 0.885335
0.379893 0.311807 0.943922
0.388785 0.31516 0.952753
0.395194 0.316443 0.955375
0.398975 0.315615 0.951698
0.396213 0.309694 0.932769
0 0 0
0 0 0
0.390696 0.294837 0.885468
0 0 0
0.391718 0.288957 0.866616
0.393531 0.287064 0.860501
0.395326 0.2852 0.854587
0.395095 0.281931 0.844575
0.397296 0.28045 0.84003
0.400053 0.279388 0.836852
0.402623 0.278219 0.833464
0.399259 0.273017 0.818099
0.402008 0.272059 0.815558
0.404048 0.270646 0.811752
0.405931 0.269157 0.80782
0.405013 0.26586 0.798554
0.399055 0.259352 0.779718
0.400539 0.257762 0.775739
0.402752 0.256667 0.773335
0.400254 0.25262 0.762109
0.393334 0.245885 0.742818
0.403819 0.250055 0.756543
0.404519 0.248145 0.751965
0.404693 0.24595 0.74658
0.409508 0.246591 0.74987
0 0 0
0 0 0
0 0 0
0 0 0
0 0 0
0 0 0
0 0 0
0 0 0
0 0 0
0 0 0
0 0 0
-0.393491 0.253998 0.754635
-0.387994 0.252902 0.75044
-0.38412 0.252853 0.749445
-0.381501 0.253637 0.751006
-0.377624 0.253592 0.750202
-0.373466 0.253356 0.748926
-0.369369 0.253158 0.747855
-0.365302 0.252975 0.746929
-0.361328 0.252853 0.74628
-0.357444 0.252793 0.745909
-0.351808 0.251479 0.741937
-0.347886 0.251375 0.741633
-0.342906 0.250495 0.739135
-0.338339 0.249902 0.737575
-0.334293 0.249684 0.737216
-0.32943 0.248844 0.735109
-0.325023 0.248333 0.734057
-0.320317 0.24758 0.732371
-0.315642 0.246832 0.730779
-0.312283 0.247109 0.732293
-0.305478 0.244632 0.725713
-0.301197 0.244141 0.725081
-0.29685 0.243584 0.72431
-0.292798 0.243257 0.72428
-0.287338 0.241739 0.720742
-0.283193 0.241301 0.720465
-0.278995 0.240806 0.720052
-0.272768 0.238525 0.714321
-0.268488 0.237907 0.713588
-0.264803 0.237808 0.71443
-0.259457 0.236193 0.710732
-0.255889 0.236175 0.711846
-0.253549 0.237306 0.716439
-0.251236 0.238495 0.721226
-0.248483 0.239294 0.724848
-0.247126 0.241481 0.732686
-0.24579 0.243754 0.740805
-0.243622 0.245258 0.746602
-0.241342 0.246693 0.752194
-0.239098 0.248211 0.75804
-0.236635 0.249546 0.763327
-0.233884 0.250616 0.767799
-0.231293 0.251894 0.772904
-0.228752 0.253271 0.778302
-0.225771 0.254199 0.782312
-0.222499 0.254825 0.785379
0 0 0
-0.19124 0.22683 0.701061
-0.183526 0.221629 0.685916
-0.179554 0.220839 0.684374
-0.176063 0.220622 0.684579
-0.172536 0.220351 0.684595
-0.169041 0.220111 0.684681
-0.164727 0.218773 0.681325
-0.159731 0.216456 0.674884
-0.156954 0.217113 0.677688
-0.152619 0.215597 0.673684
-0.14935 0.215553 0.67425
-0.14602 0.215418 0.67451
-0.142031 0.214282 0.671612
-0.138368 0.213597 0.6701
-0.134047 0.21184 0.665195
-0.130656 0.211502 0.664722
-0.127152 0.210961 0.663586
-0.123727 0.210526 0.662763
-0.120583 0.210559 0.663393
-0.117412 0.210545 0.663857
-0.114004 0.210093 0.662917
-0.110504 0.209441 0.661329
-0.106589 0.207943 0.657044
-0.103253 0.207517 0.656124
-0.0995706 0.206346 0.652831
-0.0962383 0.205849 0.65165
-0.0931234 0.2058 0.651868
-0.0896424 0.20491 0.649407
-0.0864723 0.204693 0.64906
-0.083277 0.204398 0.648451
-0.0798312 0.203442 0.645728
-0.0766188 0.203029 0.64471
-0.0734114 0.202595 0.643612
-0.0701545 0.201981 0.641927
-0.0668879 0.201282 0.639957
-0.0636135 0.200492 0.637683
-0.0603183 0.199555 0.634926
-0.0566132 0.197093 0.627302
-0.0535358 0.196666 0.626137
-0.0501748 0.195086 0.621287
-0.0472442 0.195086 0.62146
-0.0444321 0.195609 0.623285
-0.0415722 0.19598 0.624617
-0.0385568 0.195619 0.623605
-0.0354606 0.194755 0.620975
-0.0324042 0.193974 0.618599
-0.0294422 0.193658 0.617698
-0.0265621 0.193872 0.618475
-0.0235414 0.192985 0.61573
-0.0205608 0.192225 0.613377
-0.0176367 0.19183 0.612182
-0.0147412 0.191654 0.611673
-0.0118347 0.191215 0.610314
-0.00884304 0.188675 0.602242
-0.00599494 0.188248 0.600903
-0.00312633 0.185838 0.593228
0 0 0
0 0 0
0.0043488 0.153958 0.49145
0.00654066 0.151159 0.482499
0.00879787 0.150925 0.481725
0.0110366 0.150534 0.480444
0.0132279 0.14974 0.47787
0.0154564 0.149536 0.477172
0.0177799 0.150185 0.479189
0.0203407 0.152468 0.486409
0.0225785 0.152113 0.485204
0.0248125 0.1518 0.484124
0.0270249 0.151418 0.482819
0.0292006 0.150906 0.481089
0.0314779 0.150955 0.481141
0.0339731 0.151972 0.48427
0.0370328 0.155227 0.494517
0 0 0
0 0 0
0.0522106 0.184073 0.585904
0.0550176 0.184212 0.586157
0.0578522 0.184426 0.586635
0.0606409 0.184481 0.586594
0.0634557 0.184607 0.586767
0.065874 0.183617 0.583383
0.0687423 0.183911 0.584065
0.0717161 0.184453 0.585523
0.0742585 0.183887 0.583449
0.0769982 0.183832 0.582986
0.0797888 0.183899 0.582893
0.082572 0.183944 0.58272
0.0853179 0.183907 0.582269
0.0881004 0.183948 0.582053
0.0906169 0.183448 0.580111
0.0933607 0.183424 0.579661
0.0965865 0.184321 0.582105
0.0993606 0.18433 0.581727
0.101814 0.18376 0.579505
0.104276 0.183235 0.577412
0.106773 0.182797 0.575581
0.109992 0.183586 0.577594
0.112191 0.182677 0.574246
0.115017 0.182806 0.574151
0.117555 0.182482 0.572612
0.12011 0.1822 0.571191
0.122878 0.182246 0.570778
0.125666 0.182318 0.570431
0.128418 0.182337 0.569898
0.13129 0.182522 0.569864
0.133958 0.18242 0.568919
0.136533 0.182199 0.567581
0.139383 0.182347 0.567374
0.142179 0.18242 0.566916
0.145287 0.182882 0.567645
0.147868 0.182677 0.566285
0.14991 0.181824 0.562903
0.152411 0.18155 0.5613
0.155216 0.18164 0.560803
0.15776 0.181428 0.55936
0.160859 0.18185 0.559852
0.163482 0.181729 0.558653
0.166487 0.182029 0.558736
0.168983 0.181773 0.557094
0.171816 0.181881 0.55656
0.174459 0.181787 0.555393
0.177145 0.181742 0.554365
0.180126 0.181995 0.554236
0.183013 0.182147 0.55379
0.185911 0.182305 0.553358
0.193717 0.187202 0.567281
0 0 0
0.280316 0.263245 0.795066
0.286249 0.265077 0.799274
0.29288 0.267496 0.805241
0.298491 0.268931 0.808245
0.305826 0.27186 0.815736
0.31438 0.275781 0.826201
0.334181 0.289338 0.865483
0.341456 0.29184 0.871667
0 0 0
0.377064 0.314205 0.935822
0.381606 0.314059 0.934156
0 0 0
0.384133 0.308509 0.915451
0.38313 0.304035 0.90121
0.386148 0.302821 0.896736
0.388151 0.300847 0.890114
0.387525 0.296904 0.877775
0.388165 0.294011 0.868654
0.389164 0.291451 0.860632
0.392816 0.290913 0.858686
0.391386 0.286664 0.845901
0.39194 0.283946 0.837743
0.395695 0.28358 0.836636
0.397974 0.282175 0.83257
0.395824 0.277692 0.819531
0.398083 0.276365 0.815904
0.399555 0.274523 0.810862
0.402293 0.273581 0.808575
0.401397 0.270211 0.799206
0.40221 0.268047 0.793494
0.398923 0.263221 0.779976
0.398636 0.26045 0.772619
0.398521 0.257844 0.765823
0.397488 0.2547 0.757496
0.40191 0.255078 0.759715
0.40737 0.256101 0.763945
0.410948 0.255934 0.764706
0 0 0
0.416515 0.254636 0.763563
0 0 0
0 0 0
0 0 0
0 0 0
0 0 0
0 0 0
0 0 0
0 0 0
0 0 0
0 0 0
0 0 0
-0.389764 0.255372 0.748138
-0.388015 0.256715 0.751085
-0.385494 0.25757 0.75268
-0.382082 0.25784 0.752651
-0.377889 0.257583 0.751172
-0.374284 0.257726 0.75095
-0.370428 0.257697 0.750321
-0.366928 0.257918 0.750513
-0.362773 0.257678 0.749458
-0.358721 0.257507 0.7487
-0.354155 0.25696 0.746945
-0.348334 0.25548 0.742577
-0.343475 0.254681 0.740281
-0.34129 0.255869 0.743857
-0.336094 0.254801 0.740966
-0.333123 0.255414 0.743055
-0.327915 0.254307 0.740227
-0.323571 0.253852 0.739379
-0.318169 0.252546 0.736133
-0.312464 0.250966 0.732158
-0.307455 0.249914 0.729791
-0.302863 0.24918 0.728413
-0.300039 0.249899 0.731351
-0.293584 0.247574 0.725435
-0.28835 0.246234 0.722443
-0.284458 0.24602 0.722798
-0.280689 0.245909 0.723497
-0.275957 0.244938 0.721703
-0.2705 0.243291 0.717937
-0.267043 0.243423 0.71944
-0.263497 0.243475 0.720732
-0.258522 0.24219 0.718081
-0.253989 0.241289 0.71657
-0.25049 0.241359 0.717948
-0.249736 0.244113 0.727334
-0.246554 0.244542 0.729806
-0.246318 0.247947 0.74118
-0.243917 0.249244 0.746272
-0.241241 0.250295 0.750631
-0.23885 0.251679 0.755992
-0.238066 0.254827 0.766659
-0.234583 0.255141 0.768806
-0.231378 0.255773 0.771896
-0.229296 0.257687 0.778849
-0.226594 0.258958 0.783857
-0.222938 0.259163 0.785621
-0.218874 0.258894 0.785925
0 0 0
-0.187178 0.229436 0.698424
-0.18202 0.227235 0.692647
-0.178073 0.226493 0.691281
-0.173489 0.224897 0.687279
-0.169319 0.223784 0.68472
-0.16574 0.223424 0.684438
-0.161672 0.222378 0.682027
-0.157533 0.221188 0.679141
-0.154065 0.220909 0.679027
-0.150529 0.22052 0.678552
-0.146415 0.219246 0.675326
-0.142876 0.218796 0.674611
-0.13913 0.218 0.672807
-0.135213 0.216893 0.670012
-0.131545 0.216141 0.668291
-0.12785 0.215305 0.666285
-0.124512 0.215044 0.666035
-0.121186 0.214791 0.665791
-0.117845 0.214496 0.665393
-0.114391 0.213974 0.664271
-0.111034 0.213608 0.663613
-0.107267 0.21241 0.660351
-0.103735 0.211618 0.658326
-0.100151 0.210667 0.655788
-0.0966606 0.209858 0.653672
-0.0932448 0.209164 0.651891
-0.0900252 0.208876 0.651362
-0.0866903 0.208292 0.649889
-0.0834408 0.207877 0.648929
-0.0802494 0.20758 0.648321
-0.0769108 0.206864 0.646387
-0.073591 0.206141 0.644417
-0.0703171 0.20549 0.642653
-0.06722 0.20532 0.64238
-0.0640724 0.204972 0.641537
-0.0608287 0.204267 0.639561
-0.0576871 0.203849 0.63847
-0.0544836 0.203155 0.636498
-0.0507866 0.200431 0.628153
-0.0473032 0.198264 0.62154
-0.0440809 0.196978 0.617671
-0.041367 0.197943 0.620847
-0.0381768 0.196601 0.616779
-0.0353854 0.197262 0.618981
-0.0324014 0.196871 0.617873
-0.0293761 0.196127 0.615645
-0.0265132 0.196422 0.61667
-0.0236862 0.19709 0.618854
-0.0206372 0.195838 0.614999
-0.0176872 0.19527 0.613281
-0.0148024 0.195342 0.613561
-0.0118967 0.195103 0.612857
-0.00890642 0.192882 0.605915
-0.00602066 0.191896 0.602843
-0.00318286 0.192041 0.603316
-0.000339634 0.191561 0.601814
0.00249025 0.191148 0.600512
0 0 0
0 0 0
0 0 0
0.0110302 0.152707 0.479655
0.0132016 0.151687 0.47641
0.0154336 0.151558 0.475957
0.0177537 0.152217 0.477969
0.0201096 0.153001 0.480365
0.0224612 0.153596 0.48216
0.0247551 0.153723 0.482477
0.026992 0.153506 0.481703
0.0291084 0.15269 0.479044
0.0323422 0.15743 0.493806
0 0 0
0 0 0
0.0468974 0.187709 0.588324
0.0497864 0.188127 0.589461
0.0527792 0.188873 0.591609
0.0556722 0.189204 0.592449
0.0582187 0.188383 0.589666
0.0609538 0.188219 0.58893
0.0636967 0.188092 0.588301
0.0665834 0.188383 0.588963
0.0694174 0.188507 0.589092
0.0719243 0.187768 0.586511
0.0749204 0.188313 0.587928
0.0773566 0.187463 0.584975
0.0801779 0.187572 0.585003
0.0830419 0.187771 0.585297
0.0858654 0.187868 0.585258
0.0883952 0.187336 0.583248
0.0910638 0.187122 0.582212
0.0940178 0.18749 0.582972
0.0968549 0.18761 0.582945
0.0994777 0.18732 0.581628
0.102072 0.186993 0.580182
0.10455 0.186477 0.578134
0.107194 0.186275 0.577046
0.110009 0.186373 0.576869
0.113065 0.186865 0.577894
0.115745 0.186727 0.576953
0.118617 0.186898 0.576946
0.120588 0.185674 0.57262
0.123551 0.185997 0.573051
0.126653 0.186511 0.574048
0.129258 0.186287 0.572755
0.13199 0.186251 0.572021
0.134827 0.186362 0.571722
0.137329 0.186015 0.57
0.139957 0.185848 0.568811
0.142929 0.186137 0.568999
0.145683 0.186136 0.568282
0.1485 0.186214 0.567785
0.150363 0.185114 0.563687
0.152876 0.18484 0.562089
0.155817 0.185083 0.562047
0.159409 0.186078 0.564268
0.161766 0.185623 0.562072
0.164689 0.185821 0.561838
0.167524 0.185915 0.561277
0.170585 0.186253 0.561435
0.173263 0.186168 0.560307
0.175264 0.18537 0.557025
0.177715 0.185066 0.555224
0.18157 0.18621 0.557755
0.183697 0.185575 0.554949
0.186397 0.185528 0.553905
0.194352 0.190638 0.568227
0 0 0
0.280582 0.267454 0.794584
0.287 0.269766 0.80015
0.292925 0.271556 0.804167
0.297928 0.272457 0.805553
0.303022 0.273414 0.807125
0.31088 0.276808 0.815898
0 0 0
0 0 0
0.357464 0.306181 0.898612
0 0 0
0 0 0
0 0 0
0.379547 0.309406 0.903736
0.380484 0.306472 0.894286
0.382225 0.304247 0.887007
0.38341 0.301637 0.878711
0.38365 0.298351 0.868554
0.385428 0.296323 0.862169
0.387458 0.294533 0.856582
0.389522 0.292807 0.851292
0.387408 0.288014 0.837194
0.390272 0.286985 0.834148
0.392964 0.285854 0.830908
0.393279 0.283035 0.822871
0.395198 0.281419 0.81843
0.396256 0.279229 0.812424
0.39761 0.277291 0.807247
0.398463 0.275047 0.801271
0.39872 0.272441 0.794329
0.3998 0.270444 0.78925
0.401814 0.269112 0.786194
0.394628 0.261705 0.765455
0.394894 0.259336 0.759502
0.398014 0.258869 0.759193
0.404401 0.260515 0.76517
0 0 0
0 0 0
0 0 0
0 0 0
0 0 0
0 0 0
0 0 0
0 0 0
0 0 0
0 0 0
0 0 0
0 0 0
0 0 0
0 0 0
0 0 0
-0.389531 0.258997 0.748381
-0.391527 0.262873 0.758536
-0.386853 0.262304 0.755934
-0.38332 0.262504 0.755636
-0.379149 0.262267 0.754168
-0.37558 0.262446 0.753983
-0.372134 0.262716 0.75415
-0.369103 0.263287 0.755272
-0.364222 0.262537 0.752698
-0.359715 0.262043 0.750954
-0.354813 0.261248 0.748444
-0.350189 0.260642 0.746572
-0.345699 0.260124 0.745045
-0.341272 0.259642 0.743716
-0.339038 0.260837 0.747283
-0.334939 0.260607 0.746861
-0.330776 0.260322 0.746368
-0.325592 0.259218 0.743612
-0.31972 0.257533 0.73927
-0.313843 0.255804 0.734873
-0.31126 0.256752 0.738238
-0.304856 0.254532 0.732565
-0.300192 0.253727 0.731023
-0.296492 0.253728 0.731861
-0.289808 0.251142 0.725288
-0.285945 0.250967 0.725719
-0.281694 0.250441 0.72518
-0.276814 0.249336 0.722999
-0.271954 0.24822 0.720812
-0.267747 0.247677 0.720314
-0.263947 0.247501 0.720908
-0.259722 0.246916 0.720329
-0.25448 0.245334 0.716849
-0.250569 0.245009 0.717046
-0.248066 0.246071 0.721316
-0.248096 0.249712 0.733174
-0.246724 0.252032 0.741181
-0.243775 0.252785 0.744596
-0.241608 0.254386 0.750512
-0.239165 0.255741 0.755714
-0.237713 0.258215 0.764227
-0.235171 0.259566 0.769425
-0.232421 0.260729 0.774059
-0.23033 0.262681 0.781035
-0.227177 0.263467 0.78454
-0.22428 0.264582 0.789013
-0.21974 0.263766 0.787706
-0.21522 0.262943 0.786353
-0.191358 0.238031 0.712829
-0.183601 0.232602 0.697507
-0.178808 0.230794 0.692991
-0.174546 0.229616 0.690334
-0.170425 0.228581 0.688077
-0.166316 0.227519 0.685711
-0.1624 0.226686 0.684004
-0.158497 0.225835 0.682216
-0.154783 0.225224 0.681126
-0.151346 0.224998 0.681174
-0.147744 0.224511 0.68041
-0.143506 0.223013 0.676554
-0.139648 0.222051 0.674296
-0.135917 0.221249 0.672497
-0.131992 0.220086 0.669573
-0.128463 0.21954 0.668503
-0.12519 0.219415 0.668694
-0.121843 0.219152 0.668442
-0.118115 0.21817 0.665975
-0.114823 0.21796 0.665845
-0.111031 0.216764 0.662677
-0.107742 0.216507 0.662362
-0.104226 0.215767 0.660547
-0.100974 0.215541 0.660287
-0.0973364 0.214453 0.657367
-0.0938334 0.213599 0.655144
-0.0903072 0.212632 0.652552
-0.0870514 0.212255 0.651756
-0.0839306 0.212192 0.651904
-0.0805527 0.211449 0.649949
-0.0773302 0.211071 0.649098
-0.0739069 0.21009 0.646378
-0.0709133 0.2103 0.647304
-0.067601 0.20954 0.645232
-0.0644974 0.209386 0.64501
-0.0612958 0.208882 0.643698
-0.0579197 0.207701 0.64028
-0.054607 0.206628 0.637184
-0.051655 0.206875 0.638144
-0.0485024 0.2063 0.636553
-0.0443046 0.200908 0.620084
-0.0411013 0.199582 0.616147
-0.0381888 0.199574 0.616266
-0.0352418 0.199369 0.615766
-0.0323364 0.199384 0.615933
-0.0294017 0.199203 0.615484
-0.0263092 0.197796 0.611237
-0.023415 0.197717 0.611081
-0.020455 0.196982 0.608886
-0.0175483 0.196605 0.607787
-0.014626 0.195869 0.605571
-0.0117629 0.195765 0.605295
-0.00889593 0.195506 0.60453
-0.00603318 0.195141 0.603427
-0.00316741 0.193938 0.599722
-0.000338915 0.193985 0.599874
0.00249875 0.194639 0.601894
0.00528786 0.192827 0.596276
0.00805442 0.191736 0.592881
0.0106255 0.187754 0.580535
0 0 0
0 0 0
0.0155559 0.15502 0.479193
0.0176681 0.153726 0.475133
0.0201136 0.155296 0.47992
0.0223943 0.155405 0.48018
0.0247156 0.15575 0.481161
0 0 0
0 0 0
0 0 0
0.0405255 0.18673 0.576361
0.0443375 0.19143 0.590709
0.0473489 0.192321 0.593291
0.0501872 0.192449 0.593504
0.0531171 0.192895 0.594688
0.0558378 0.192576 0.593498
0.0586192 0.192486 0.593004
0.0614469 0.19255 0.592971
0.0641532 0.192244 0.591789
0.067179 0.192881 0.593495
0.0699776 0.192841 0.593103
0.0729601 0.193291 0.594206
0.0756657 0.193002 0.59302
0.0783622 0.19271 0.591816
0.0810237 0.192356 0.590407
0.0833575 0.191274 0.58675
0.086246 0.191493 0.587073
0.0889679 0.19134 0.58624
0.0918334 0.191496 0.586338
0.0946777 0.1916 0.586261
0.0976461 0.191942 0.586895
0.0999518 0.190998 0.583584
0.102072 0.189761 0.579364
0.105127 0.190281 0.580495
0.107973 0.190407 0.580404
0.110742 0.190392 0.579869
0.113399 0.190191 0.578749
0.11622 0.190269 0.578459
0.119174 0.190555 0.578784
0.122069 0.190735 0.57877
0.125018 0.190991 0.578966
0.127014 0.18981 0.574791
0.129653 0.189621 0.573603
0.132658 0.189964 0.574009
0.135581 0.190179 0.574005
0.137859 0.189496 0.571277
0.140569 0.189424 0.570374
0.143206 0.189258 0.569171
0.146201 0.189562 0.569361
0.14904 0.189656 0.568905
0.151887 0.189758 0.568452
0.154684 0.189793 0.567781
0.15713 0.189406 0.56583
0.160027 0.189565 0.565499
0.162968 0.18977 0.565287
0.16599 0.190061 0.565317
0.168546 0.189818 0.563743
0.171167 0.189655 0.562396
0.17391 0.189629 0.561447
0.177144 0.190132 0.562053
0.179682 0.189883 0.560426
0.181244 0.188627 0.555827
0.184542 0.189187 0.55658
0.187115 0.188999 0.55513
0.193924 0.193033 0.566063
0 0 0
0.28341 0.274147 0.801347
0.289983 0.276603 0.807242
0.29482 0.277358 0.808176
0.297572 0.276158 0.803439
0.301485 0.276054 0.801924
0.30643 0.276883 0.803154
0.312342 0.278555 0.806854
0 0 0
0 0 0
0 0 0
0 0 0
0.363371 0.304275 0.875944
0.370492 0.306494 0.881459
0.375914 0.307272 0.882905
0.378504 0.305745 0.877817
0.378794 0.302416 0.867662
0.380413 0.300213 0.860843
0.382792 0.298652 0.855972
0.383097 0.295527 0.846724
0.384465 0.293283 0.840106
0.385505 0.290841 0.833028
0.388061 0.289582 0.829446
0.389737 0.287702 0.824187
0.391715 0.286082 0.819775
0.393675 0.284483 0.815524
0.394432 0.282058 0.809
0.394988 0.27954 0.802304
0.39721 0.27824 0.799194
0.399102 0.276738 0.795594
0.401523 0.27563 0.793212
0.401063 0.272584 0.785336
0.396203 0.266638 0.769159
0 0 0
0 0 0
0 0 0
0 0 0
0 0 0
0.472862 0.300529 0.875303
0 0 0
0 0 0
0 0 0
0 0 0
0 0 0
0 0 0
0 0 0
0 0 0
0 0 0
0 0 0
0 0 0
0 0 0
-0.401231 0.270667 0.771614
-0.393845 0.268286 0.763728
-0.389093 0.26767 0.760958
-0.38438 0.267069 0.75832
-0.380318 0.266912 0.75703
-0.377226 0.267441 0.75777
-0.37341 0.267462 0.757159
-0.369143 0.267156 0.755715
-0.365305 0.267157 0.755232
-0.360324 0.266315 0.752457
-0.356068 0.265995 0.751252
-0.351979 0.265795 0.75048
-0.347591 0.265362 0.749147
-0.343008 0.264769 0.747452
-0.339224 0.264786 0.747572
-0.336277 0.265465 0.749654
-0.331884 0.265004 0.748606
-0.327253 0.26434 0.74707
-0.32238 0.263464 0.745016
-0.318093 0.26305 0.744349
-0.313144 0.262073 0.742165
-0.308028 0.26093 0.73958
-0.301819 0.258823 0.734321
-0.296488 0.257425 0.73113
-0.293099 0.257699 0.732746
-0.289375 0.257681 0.733586
-0.284004 0.256178 0.730245
-0.279568 0.25549 0.729262
-0.27292 0.252734 0.722405
-0.268625 0.252112 0.721671
-0.264534 0.251669 0.72147
-0.261171 0.251915 0.723272
-0.257444 0.251812 0.724092
-0.251248 0.249255 0.717863
-0.248161 0.249755 0.720438
-0.248704 0.253976 0.733778
-0.246442 0.255415 0.739112
-0.245004 0.257765 0.747101
-0.242387 0.258928 0.751663
-0.240126 0.260514 0.757461
-0.237725 0.261995 0.762962
-0.235458 0.263674 0.769043
-0.233074 0.265274 0.774896
-0.230461 0.266663 0.780131
-0.228184 0.268494 0.78666
-0.224821 0.269089 0.789556
-0.221141 0.269318 0.791364
-0.217185 0.269213 0.792173
0 0 0
-0.184482 0.237127 0.699664
-0.180295 0.236108 0.697578
-0.175942 0.234828 0.694689
-0.171478 0.233347 0.691174
-0.1679 0.233036 0.691098
-0.163444 0.23147 0.687272
-0.159372 0.230395 0.68487
-0.155522 0.229599 0.683272
-0.152164 0.229514 0.683764
-0.148488 0.228932 0.682754
-0.144666 0.228095 0.680956
-0.1407 0.226987 0.678321
-0.138165 0.228188 0.682567
-0.133425 0.225719 0.67581
-0.129585 0.224688 0.673328
-0.126356 0.22469 0.673919
-0.122886 0.224251 0.673166
-0.118981 0.222974 0.669876
-0.115042 0.221562 0.666151
-0.112316 0.222471 0.669388
-0.10879 0.221802 0.667856
-0.105195 0.220948 0.665747
-0.101688 0.220232 0.664033
-0.0977496 0.218505 0.659249
-0.0944505 0.21814 0.658553
-0.0912199 0.217913 0.658256
-0.0879718 0.217628 0.657765
-0.0844305 0.216569 0.654917
-0.0809265 0.215528 0.652106
-0.0776825 0.215125 0.651205
-0.0745182 0.214917 0.650883
-0.0710619 0.213814 0.647829
-0.0679653 0.213742 0.647885
-0.0647863 0.213391 0.647082
-0.0616475 0.213145 0.646581
-0.0584152 0.212533 0.644955
-0.0551732 0.211816 0.642997
-0.0519634 0.211146 0.641167
-0.0487747 0.210483 0.639346
-0.0454104 0.208926 0.634792
-0.0417534 0.205706 0.62517
-0.0391991 0.207842 0.631813
-0.0360161 0.206721 0.628546
-0.0327397 0.204815 0.622875
-0.0295894 0.203399 0.618684
-0.0265035 0.202163 0.615027
-0.0233355 0.199919 0.608291
-0.0204991 0.200286 0.609486
-0.0175522 0.199516 0.607214
-0.0145164 0.197238 0.600338
-0.0117632 0.198625 0.604608
-0.0088724 0.197833 0.602233
-0.00600275 0.196988 0.599688
-0.00314317 0.19526 0.594445
-0.000335887 0.195056 0.593827
0.00247197 0.195361 0.594754
0.00524558 0.194075 0.590824
0.00794274 0.191835 0.583983
0.0106538 0.191 0.581405
0.0132198 0.188439 0.573567
0.0156951 0.185675 0.565103
0 0 0
0 0 0
0.0207903 0.162863 0.495484
0 0 0
0 0 0
0 0 0
0.0359604 0.194216 0.590424
0.0382254 0.191575 0.582258
0.0416702 0.194804 0.591924
0.0447539 0.196046 0.595533
0.047847 0.197179 0.598798
0.0506894 0.197209 0.598704
0.0533592 0.196601 0.596658
0.0562471 0.196817 0.597102
0.0590064 0.196583 0.59617
0.061646 0.195991 0.594138
0.064552 0.19626 0.594706
0.067372 0.196257 0.594432
0.0702998 0.196555 0.595059
0.0732155 0.196797 0.595504
0.0761135 0.196975 0.59574
0.0787384 0.19646 0.593863
0.0814955 0.196298 0.593044
0.0843699 0.196421 0.593068
0.0870704 0.196143 0.59187
0.0895356 0.19537 0.589162
0.0922249 0.195118 0.588013
0.0949718 0.194999 0.58725
0.0978649 0.195178 0.587369
0.100736 0.195305 0.587315
0.103686 0.195573 0.587665
0.106381 0.195359 0.586551
0.108893 0.194829 0.584474
0.111595 0.194656 0.583454
0.114288 0.194478 0.5824
0.11682 0.19404 0.580553
0.119644 0.194096 0.580166
0.122648 0.194435 0.580606
0.125577 0.194642 0.580633
0.128171 0.194334 0.579104
0.130446 0.193563 0.576184
0.133282 0.193641 0.575772
0.13605 0.193619 0.575047
0.138654 0.19337 0.573627
0.141488 0.193443 0.57315
0.144119 0.193243 0.571842
0.147188 0.193625 0.572241
0.149955 0.193604 0.571428
0.152494 0.193295 0.56975
0.155013 0.192971 0.568017
0.15823 0.193514 0.568815
0.161513 0.194115 0.569768
0.164081 0.193852 0.568168
0.166809 0.193784 0.567126
0.169513 0.193691 0.566
0.172096 0.193465 0.564475
0.174785 0.193363 0.563308
0.177307 0.193082 0.56161
0.180226 0.193236 0.561173
0.183049 0.193283 0.560422
0.185934 0.193395 0.559853
0.189008 0.193696 0.559833
0 0 0
0 0 0
0.282989 0.277733 0.798928
0.291814 0.282409 0.811123
0.296033 0.282562 0.810325
0.298867 0.281406 0.805806
0.299968 0.27867 0.796813
0.304577 0.279223 0.797269
0.30921 0.279783 0.797785
0.316355 0.282573 0.804693
0.321158 0.283226 0.805559
0 0 0
0 0 0
0.362278 0.307784 0.872578
0.367388 0.308359 0.87342
0.371997 0.308505 0.873129
0.373296 0.305936 0.865249
0.375101 0.303835 0.858798
0.3779 0.302579 0.854836
0.378979 0.29999 0.847209
0.381346 0.298468 0.842701
0.382664 0.296167 0.8361
0.382879 0.293072 0.827361
0.384282 0.290945 0.821454
0.387144 0.289956 0.818863
0.38991 0.288917 0.816229
0.391742 0.287215 0.811822
0.392239 0.284581 0.804871
0.394024 0.282925 0.800778
0.397693 0.282641 0.800662
0.402232 0.282976 0.80239
0.407471 0.283792 0.805578
0 0 0
0 0 0
0 0 0
0 0 0
0 0 0
0 0 0
0 0 0
0 0 0
0 0 0
0 0 0
0 0 0
0 0 0
0 0 0
0 0 0
0 0 0
0 0 0
0 0 0
0 0 0
0 0 0
0 0 0
-0.400055 0.273753 0.770145
-0.396058 0.273672 0.768766
-0.390447 0.272463 0.7643
-0.385639 0.271796 0.761445
-0.381193 0.271373 0.759361
-0.378 0.271842 0.759857
-0.37457 0.272149 0.759984
-0.371594 0.272796 0.761147
-0.365297 0.270992 0.755564
-0.362165 0.271523 0.756584
-0.357375 0.270809 0.754227
-0.354734 0.271726 0.756503
-0.351334 0.272075 0.757292
-0.34493 0.27008 0.751647
-0.341073 0.270056 0.751582
-0.33634 0.269331 0.749657
-0.332728 0.269497 0.750298
-0.328761 0.269376 0.75023
-0.32467 0.269149 0.749952
-0.318947 0.267548 0.745925
-0.314876 0.267311 0.745776
-0.309526 0.265969 0.742618
-0.303091 0.26365 0.736794
-0.298506 0.262903 0.735424
-0.295237 0.26331 0.737345
-0.292009 0.263765 0.73946
-0.286513 0.262156 0.735838
-0.282655 0.262024 0.736406
-0.277134 0.260326 0.73261
-0.273616 0.260489 0.734084
-0.268999 0.259596 0.732612
-0.263167 0.257489 0.727733
-0.259031 0.257006 0.727457
-0.252572 0.254171 0.720527
-0.251393 0.256645 0.728663
-0.248667 0.257588 0.73248
-0.247037 0.259713 0.739678
-0.245244 0.261727 0.746583
-0.243048 0.263366 0.752437
-0.240285 0.264433 0.756665
-0.238352 0.266462 0.763656
-0.23527 0.26725 0.767094
-0.232595 0.268535 0.771959
-0.230389 0.270411 0.778526
-0.22806 0.272206 0.784858
-0.225169 0.273379 0.789396
-0.222045 0.274307 0.793214
-0.218484 0.274717 0.795524
-0.213872 0.273796 0.793956
0 0 0
-0.18119 0.240691 0.699832
-0.177522 0.240343 0.699727
-0.173091 0.238929 0.69649
-0.169533 0.238686 0.696642
-0.165817 0.238206 0.696077
-0.161784 0.237242 0.694071
-0.1563 0.234066 0.685557
-0.153003 0.234096 0.686402
-0.149844 0.234344 0.687867
-0.145428 0.232593 0.683439
-0.142118 0.23257 0.684058
-0.138515 0.232055 0.683212
-0.134912 0.231516 0.68227
-0.130737 0.229944 0.678258
-0.126997 0.229075 0.67629
-0.123269 0.228183 0.674233
-0.119727 0.227598 0.673059
-0.116389 0.227378 0.672942
-0.112896 0.226833 0.671842
-0.10938 0.22621 0.670491
-0.105941 0.225713 0.669492
-0.102222 0.22457 0.666557
-0.0986685 0.22373 0.664496
-0.0949209 0.222378 0.660896
-0.0917214 0.222261 0.660948
-0.0884034 0.221839 0.660073
-0.0848942 0.220889 0.657607
-0.0814578 0.220062 0.655491
-0.0781247 0.219459 0.654025
-0.0750199 0.219475 0.654385
-0.0717302 0.218927 0.653051
-0.0682761 0.217806 0.649988
-0.0650571 0.217364 0.648935
-0.0619098 0.217129 0.648487
-0.0586656 0.216512 0.646882
-0.0554259 0.215845 0.645112
-0.0520612 0.214584 0.641553
-0.0489294 0.214187 0.640561
-0.0459475 0.214436 0.641491
-0.0427588 0.213687 0.639421
-0.0395738 0.212845 0.637056
-0.0365363 0.212721 0.636831
-0.0333827 0.211839 0.634323
-0.030278 0.211124 0.632302
-0.0271779 0.210287 0.629902
-0.024197 0.210281 0.629979
-0.0212141 0.210251 0.629977
-0.0179386 0.206839 0.619825
-0.0150829 0.20788 0.623006
-0.0120971 0.2072 0.621018
-0.00913864 0.206699 0.619555
-0.00614069 0.204412 0.612728
-0.00321926 0.202862 0.6081
-0.000338349 0.19931 0.597459
0.00248667 0.199348 0.59757
0.00530926 0.199255 0.597276
0.00805611 0.197371 0.591602
0.0107263 0.195063 0.58465
0.0132247 0.191219 0.573084
0.0157207 0.188652 0.565339
0 0 0
0 0 0
0 0 0
0 0 0
0 0 0
0.0321459 0.190934 0.571635
0.0352693 0.193222 0.578356
0.0391088 0.19882 0.594969
0.0421343 0.199806 0.597764
0.0453312 0.201429 0.60245
0.0482938 0.201881 0.60362
0.0511272 0.201772 0.603101
0.0541061 0.202218 0.604228
0.056571 0.200796 0.599759
0.0594383 0.200869 0.599748
0.0622545 0.200771 0.599211
0.0647072 0.19956 0.595343
0.0677153 0.200092 0.59666
0.0702977 0.199374 0.594238
0.0734392 0.200236 0.596509
0.0763638 0.200464 0.596878
0.0791272 0.200268 0.595969
0.0818372 0.199955 0.594697
0.0845903 0.199765 0.593778
0.0873247 0.199544 0.592753
0.0900506 0.199318 0.591699
0.0929585 0.199497 0.59183
0.0954762 0.198852 0.589504
0.098233 0.198728 0.588706
0.101117 0.198861 0.588653
0.104093 0.199163 0.589082
0.106772 0.198897 0.587814
0.109276 0.198326 0.585631
0.111848 0.197903 0.58387
0.11461 0.197829 0.583126
0.117533 0.198031 0.583174
0.120344 0.198038 0.582627
0.123105 0.197965 0.581832
0.12588 0.197917 0.581089
0.12874 0.198002 0.58072
0.131487 0.197914 0.579826
0.134493 0.19821 0.580038
0.137014 0.197795 0.578151
0.139499 0.197345 0.576148
0.14221 0.197225 0.575093
0.144868 0.197039 0.573829
0.148057 0.197569 0.57463
0.15068 0.197336 0.573197
0.153201 0.196982 0.571396
0.156174 0.197212 0.571275
0.15961 0.198007 0.572773
0.161995 0.197494 0.570472
0.164657 0.19733 0.569166
0.167237 0.197074 0.567588
0.169983 0.19702 0.566581
0.172876 0.197135 0.56605
0.175613 0.197072 0.564999
0.178175 0.196816 0.563392
0.1808 0.196639 0.562007
0.183794 0.19686 0.56176
0.186956 0.197253 0.562
0.190118 0.197634 0.562204
0 0 0
0 0 0
0 0 0
0.290819 0.285493 0.807167
0.293893 0.284551 0.80332
0.293706 0.280521 0.790804
0.298956 0.281722 0.793083
0.302836 0.281619 0.791725
0.307262 0.282017 0.791825
0.310392 0.281232 0.788652
0.315899 0.282593 0.791553
0 0 0
0 0 0
0.359416 0.309742 0.865014
0.362337 0.308492 0.860822
0.368052 0.309622 0.86336
0.371051 0.308467 0.859617
0.373512 0.306897 0.854816
0.372981 0.302934 0.843452
0.376812 0.302562 0.842191
0.378729 0.300681 0.836827
0.380167 0.298464 0.830634
0.380845 0.295706 0.823033
0.382736 0.29394 0.818292
0.385515 0.292887 0.815634
0.388634 0.292111 0.813847
0.390959 0.290761 0.810557
0.392329 0.288738 0.805478
0.3984 0.290179 0.810161
0.410853 0.296192 0.827721
0.421377 0.300707 0.841218
0 0 0
0 0 0
0.43575 0.301807 0.847507
0 0 0
0 0 0
0 0 0
0 0 0
0.407003 0.268709 0.760868
0.405827 0.265449 0.753091
0 0 0
0 0 0
0 0 0
0 0 0
0 0 0
0 0 0
0 0 0
0 0 0
0 0 0
0 0 0
0 0 0
0 0 0
-0.412218 0.286074 0.794423
-0.39774 0.278729 0.772825
-0.392256 0.277604 0.768585
-0.38727 0.276813 0.765356
-0.382244 0.275977 0.762089
-0.379457 0.276757 0.763369
-0.377249 0.27798 0.765948
-0.37399 0.278446 0.766523
-0.368978 0.277602 0.763582
-0.36384 0.276645 0.760424
-0.360419 0.276986 0.760925
-0.357414 0.277659 0.762424
-0.353897 0.277944 0.762951
-0.349044 0.277174 0.760676
-0.343683 0.275979 0.757325
-0.338771 0.275122 0.754994
-0.331581 0.272374 0.747559
-0.329835 0.274086 0.752454
-0.327167 0.275063 0.755417
-0.322417 0.274292 0.753666
-0.316478 0.272479 0.749128
-0.312479 0.272311 0.749188
-0.306887 0.270735 0.745443
-0.301369 0.269185 0.741834
-0.297823 0.26938 0.743095
-0.293822 0.269163 0.743282
-0.289064 0.268239 0.741567
-0.28408 0.267077 0.739242
-0.27944 0.266212 0.737779
-0.274437 0.264973 0.735316
-0.270371 0.264617 0.735332
-0.265232 0.263187 0.732392
-0.259665 0.261286 0.728154
-0.255231 0.260487 0.726998
-0.251125 0.260004 0.726742
-0.249029 0.261619 0.732367
-0.246382 0.262695 0.736506
-0.244524 0.264656 0.743147
-0.242899 0.266936 0.750704
-0.241079 0.269067 0.757865
-0.237682 0.269478 0.76019
-0.235186 0.270941 0.765483
-0.232647 0.272401 0.770775
-0.230536 0.274419 0.777649
-0.227928 0.275904 0.783016
-0.225584 0.277765 0.789449
-0.22325 0.279703 0.796104
-0.219303 0.279654 0.79709
-0.215067 0.279229 0.796983
0 0 0
-0.18511 0.249383 0.713716
-0.178694 0.245358 0.703112
-0.174303 0.24401 0.700141
-0.170521 0.24348 0.699489
-0.166495 0.24257 0.697721
-0.162921 0.242296 0.697754
-0.1588 0.241179 0.695337
-0.154016 0.238986 0.689784
-0.150797 0.239176 0.691083
-0.147123 0.238638 0.690254
-0.142789 0.23698 0.68616
-0.139513 0.23704 0.687013
-0.13569 0.236152 0.685096
-0.131668 0.234863 0.681991
-0.128101 0.234341 0.681086
-0.123693 0.232214 0.675489
-0.120398 0.232117 0.675774
-0.116836 0.231485 0.674478
-0.113329 0.230932 0.673391
-0.109851 0.230404 0.672355
-0.106442 0.229995 0.671647
-0.102968 0.229416 0.670423
-0.0993377 0.228439 0.668014
-0.0955637 0.227056 0.664397
-0.0922902 0.226809 0.664081
-0.0888035 0.226001 0.662106
-0.0854133 0.225389 0.660684
-0.0820192 0.224718 0.659074
-0.0787351 0.224308 0.65821
-0.0755899 0.224276 0.658438
-0.0721762 0.22341 0.656202
-0.068933 0.223018 0.65534
-0.0653825 0.221547 0.651291
-0.0621615 0.221101 0.650242
-0.0591619 0.221438 0.651478
-0.0556409 0.219753 0.64675
-0.0523848 0.218978 0.644685
-0.0492908 0.218826 0.644441
-0.046163 0.218495 0.643654
-0.0429662 0.217767 0.641683
-0.0397635 0.216895 0.639278
-0.036778 0.217163 0.640217
-0.0336216 0.216379 0.63804
-0.0303687 0.214757 0.633382
-0.0273798 0.214851 0.633771
-0.0244513 0.215502 0.635789
-0.0213061 0.214156 0.631907
-0.0182271 0.213144 0.628996
-0.015206 0.212548 0.6273
-0.0121884 0.211722 0.624915
-0.00922386 0.211583 0.624545
-0.00627912 0.211982 0.625752
-0.00328991 0.210252 0.620665
-0.000353159 0.210982 0.622827
0.00259188 0.210727 0.622069
0.00551254 0.209816 0.619363
0.00832612 0.206877 0.610661
0.0112354 0.207218 0.611632
0.0141043 0.206826 0.610427
0.0169354 0.206108 0.608248
0.019747 0.205396 0.606077
0.0224863 0.204208 0.602491
0 0 0
0 0 0
0 0 0
0.0337948 0.203572 0.600181
0.0368228 0.204591 0.603047
0.0395692 0.204012 0.601189
0.0429517 0.206568 0.608561
0.0459799 0.207207 0.610267
0.0485999 0.206039 0.60664
0.0513942 0.2057 0.605442
0.0541125 0.205109 0.603489
0.0570077 0.205213 0.603573
0.0597407 0.204752 0.601979
0.0624508 0.204258 0.600277
0.0652976 0.204235 0.599946
0.0684534 0.20514 0.602325
0.0710853 0.204465 0.600053
0.0741431 0.20502 0.601375
0.0766213 0.20399 0.598037
0.0795849 0.204281 0.598554
0.0821372 0.203532 0.596013
0.0848252 0.203158 0.594556
0.0877088 0.203262 0.594482
0.0906119 0.203403 0.594501
0.0933044 0.203077 0.59314
0.0959835 0.202742 0.591737
0.0985892 0.202275 0.589937
0.101606 0.202655 0.590589
0.104459 0.202696 0.590234
0.107319 0.202748 0.589896
0.11008 0.202615 0.589003
0.112547 0.201961 0.586579
0.11586 0.202821 0.588534
0.118204 0.201983 0.585544
0.120819 0.201638 0.583969
0.12397 0.202182 0.584951
0.12668 0.201997 0.583806
0.129636 0.202206 0.58378
0.132377 0.202077 0.58276
0.135083 0.2019 0.581586
0.13813 0.202231 0.581857
0.140545 0.201642 0.579464
0.142906 0.200999 0.576903
0.146012 0.201409 0.577348
0.14908 0.201753 0.577585
0.151633 0.201399 0.575808
0.154331 0.201248 0.574596
0.157531 0.201744 0.575218
0.160003 0.201308 0.573167
0.162701 0.201165 0.571939
0.165112 0.200679 0.569727
0.167802 0.200543 0.568502
0.171009 0.201018 0.568998
0.173715 0.200899 0.567802
0.176357 0.200711 0.566406
0.178898 0.200416 0.564706
0.181577 0.200282 0.563461
0.184308 0.200208 0.562385
0.187536 0.200669 0.562813
0.190508 0.200846 0.562447
0 0 0
0 0 0
0 0 0
0.286318 0.285058 0.793525
0.289212 0.283987 0.789424
0.291135 0.282007 0.782839
0.294028 0.281005 0.77902
0 0 0
0 0 0
0 0 0
0 0 0
0 0 0
0 0 0
0 0 0
0 0 0
0 0 0
0 0 0
0.366957 0.305785 0.839543
0.371243 0.305795 0.839329
0.373564 0.304205 0.834823
0.375628 0.302445 0.829946
0.377313 0.300422 0.824449
0.37969 0.298987 0.820665
0.381498 0.297141 0.815848
0.384707 0.296415 0.814201
0.390136 0.297396 0.817342
0.392893 0.296341 0.814983
0.398702 0.297586 0.819047
0.403167 0.297813 0.820405
0.412611 0.301675 0.831883
0.42302 0.306157 0.845189
0 0 0
0.383679 0.272179 0.753313
0.382398 0.268608 0.744495
0.381472 0.265353 0.7366
0.379999 0.261784 0.727876
0 0 0
0 0 0
0.408157 0.273289 0.763996
0.404536 0.268354 0.751681
0 0 0
0 0 0
0 0 0
0 0 0
0 0 0
0 0 0
0 0 0
0 0 0
0 0 0
0 0 0
0 0 0
0 0 0
-0.402035 0.282906 0.775681
-0.401656 0.285407 0.781279
-0.394185 0.282868 0.773156
-0.386806 0.280345 0.765175
-0.3838 0.280972 0.765877
-0.381826 0.282377 0.768771
-0.379335 0.283423 0.770765
-0.374569 0.282774 0.768231
-0.368844 0.281379 0.763764
-0.366122 0.28227 0.765588
-0.362164 0.282217 0.76494
-0.358185 0.282146 0.764333
-0.354326 0.282169 0.76407
-0.350539 0.282251 0.764057
-0.346346 0.282004 0.763245
-0.340854 0.280682 0.759613
-0.334383 0.278514 0.75378
-0.330741 0.278679 0.75435
-0.328142 0.279738 0.757425
-0.323963 0.279459 0.756962
-0.318556 0.2781 0.753656
-0.313548 0.277061 0.751292
-0.309414 0.276779 0.751051
-0.304029 0.275356 0.747785
-0.299625 0.274798 0.746931
-0.295204 0.274209 0.746054
-0.290023 0.272889 0.743243
-0.284781 0.271477 0.740229
-0.280811 0.271256 0.740506
-0.276957 0.271142 0.741121
-0.271902 0.269835 0.738508
-0.265246 0.266879 0.731405
-0.260869 0.266165 0.730465
-0.256507 0.265448 0.729535
-0.251805 0.264352 0.727581
-0.248949 0.265189 0.730964
-0.246922 0.266949 0.736915
-0.245537 0.269467 0.744986
-0.243775 0.271641 0.752136
-0.240338 0.271988 0.754238
-0.237491 0.273024 0.758258
-0.235222 0.274768 0.764256
-0.233349 0.277041 0.771734
-0.230773 0.27854 0.777064
-0.228804 0.280834 0.78462
-0.227956 0.284607 0.796319
-0.22436 0.285022 0.798624
-0.220861 0.285576 0.801309
-0.216776 0.28538 0.80187
-0.210661 0.282454 0.794733
0 0 0
-0.180427 0.251199 0.708665
-0.175648 0.24933 0.704293
-0.171558 0.248383 0.702496
-0.167399 0.247296 0.700276
-0.163351 0.246331 0.698374
-0.159575 0.245743 0.697516
-0.154942 0.243782 0.69273
-0.151213 0.243188 0.691801
-0.147624 0.242797 0.691425
-0.143796 0.241985 0.689828
-0.139882 0.240987 0.687673
-0.136379 0.240666 0.687426
-0.132629 0.239883 0.685835
-0.12924 0.23973 0.68602
-0.12551 0.238918 0.6843
-0.12084 0.236224 0.67716
-0.11772 0.236497 0.678501
-0.114723 0.237038 0.680591
-0.110468 0.234936 0.675073
-0.10722 0.234912 0.675502
-0.103479 0.233776 0.672709
-0.09995 0.233059 0.671104
-0.0963602 0.232148 0.668918
-0.0926816 0.230954 0.665894
-0.0892697 0.230362 0.664589
-0.0859859 0.23007 0.664128
-0.0825801 0.229417 0.662607
-0.0791257 0.228571 0.660511
-0.0759473 0.228485 0.660595
-0.0726814 0.228118 0.659847
-0.0694226 0.22774 0.659055
-0.0660112 0.226802 0.656624
-0.0625252 0.225502 0.653127
-0.0593201 0.225133 0.652308
-0.0563247 0.225562 0.65379
-0.0527725 0.223681 0.64856
-0.0496614 0.223552 0.648395
-0.0465492 0.223401 0.648152
-0.0433586 0.222826 0.646665
-0.0402463 0.222597 0.646166
-0.0371 0.222125 0.644952
-0.0339247 0.22138 0.64293
-0.0307001 0.220134 0.639438
-0.0275731 0.219392 0.637397
-0.0245544 0.219434 0.637622
-0.0215049 0.219174 0.636957
-0.0183543 0.217631 0.632551
-0.0152896 0.216702 0.629917
-0.0122816 0.216321 0.628862
-0.00930988 0.21654 0.629542
-0.00634271 0.217121 0.631261
-0.00333874 0.216354 0.62905
-0.000354966 0.215025 0.625193
0.00260097 0.214421 0.623432
0.00555324 0.214319 0.623118
0.00846933 0.213376 0.620349
0.0113304 0.21189 0.615992
0.0142628 0.212073 0.616474
0.0171582 0.211738 0.615438
0.0201296 0.212302 0.617005
0.023035 0.212114 0.616375
0.0258623 0.211331 0.614002
0.028612 0.210136 0.610424
0.0314999 0.210083 0.610151
0.0343446 0.209775 0.609126
0.037285 0.210054 0.609792
0.0402947 0.210655 0.611382
0.043379 0.211539 0.613778
0.0460831 0.210574 0.610799
0.0488722 0.210089 0.609199
0.0515263 0.209111 0.606156
0.0544502 0.209273 0.606409
0.0574371 0.209648 0.607266
0.0600532 0.208699 0.604273
0.0631505 0.209433 0.606139
0.0657684 0.208582 0.603405
0.0689558 0.209533 0.605871
0.0717426 0.209239 0.604721
0.0744807 0.208831 0.603228
0.0773077 0.208694 0.602503
0.080015 0.208255 0.600893
0.0827738 0.207975 0.59973
0.0851518 0.20679 0.595942
0.0881033 0.207029 0.596245
0.0912405 0.207676 0.597704
0.0941961 0.207883 0.597879
0.0963579 0.206377 0.593116
0.0990485 0.206057 0.59175
0.102061 0.206407 0.592288
0.104918 0.206432 0.591878
0.107838 0.206575 0.591787
0.111091 0.207334 0.593443
0.1128 0.205244 0.586928
0.116126 0.206127 0.588903
0.119111 0.206378 0.589053
0.121693 0.205935 0.587202
0.12425 0.205469 0.585272
0.127355 0.205911 0.58591
0.13041 0.206255 0.58625
0.133044 0.205932 0.584676
0.135628 0.205547 0.582912
0.138385 0.205436 0.581907
0.141478 0.205817 0.582279
0.144054 0.205445 0.580505
0.147178 0.205855 0.580921
0.149803 0.205564 0.579346
0.152297 0.205108 0.577291
0.15586 0.206082 0.579247
0.158626 0.205986 0.578176
0.161137 0.205567 0.57619
0.163161 0.204553 0.572528
0.165909 0.204466 0.571455
0.168903 0.204679 0.571211
0.17143 0.20433 0.56939
0.174245 0.204328 0.568533
0.177234 0.204528 0.568234
0.17954 0.203945 0.565757
0.182051 0.203611 0.563974
0.184969 0.203734 0.563462
0.187877 0.203843 0.562912
0.190849 0.204017 0.56255
0.194891 0.205313 0.565286
0 0 0
0 0 0
0 0 0
0 0 0
0 0 0
0 0 0
0 0 0
0 0 0
0 0 0
0 0 0
0 0 0
0 0 0
0 0 0
0 0 0
0 0 0
0 0 0
0 0 0
0 0 0
0.368782 0.304508 0.824093
0.372831 0.304387 0.823802
0.375962 0.303529 0.82161
0.377316 0.30127 0.815724
0.380679 0.300647 0.814359
0.388309 0.303371 0.822162
0.39286 0.303657 0.823457
0.395599 0.302551 0.821072
0.393434 0.297757 0.808758
0 0 0
0.374126 0.277359 0.754903
0.370956 0.272228 0.741819
0.374294 0.271927 0.741958
0.379238 0.272788 0.745346
0.383247 0.272966 0.746947
0.378827 0.267195 0.732317
0.379673 0.265214 0.72811
0 0 0
0 0 0
0 0 0
0 0 0
0 0 0
0 0 0
0 0 0
0 0 0
0 0 0
0 0 0
0 0 0
0 0 0
0 0 0
0 0 0
0 0 0
0 0 0
-0.409978 0.29247 0.791949
-0.401022 0.288883 0.780935
-0.392964 0.285877 0.771595
-0.388798 0.285672 0.769901
-0.384171 0.28512 0.767354
-0.382579 0.286832 0.770972
-0.379802 0.287682 0.772346
-0.376394 0.288067 0.77255
-0.374333 0.289501 0.775647
-0.367671 0.287371 0.769281
-0.363586 0.28723 0.768332
-0.357624 0.285586 0.763455
-0.353925 0.285734 0.763458
-0.351172 0.286657 0.76562
-0.348096 0.287335 0.767214
-0.344397 0.287508 0.767546
-0.338945 0.286204 0.764028
-0.332827 0.284302 0.758998
-0.328299 0.283728 0.757602
-0.324245 0.283556 0.757361
-0.319342 0.282629 0.755185
-0.314736 0.281944 0.753734
-0.310375 0.281464 0.752908
-0.307083 0.281955 0.75475
-0.302091 0.280878 0.752463
-0.296558 0.279262 0.748796
-0.290292 0.276907 0.743197
-0.286442 0.276824 0.743748
-0.282063 0.276221 0.742953
-0.277912 0.275827 0.742768
-0.273803 0.275466 0.74271
-0.268093 0.273461 0.738252
-0.26282 0.271852 0.734886
-0.258381 0.271072 0.733783
-0.253492 0.26979 0.731337
-0.249641 0.269591 0.731846
-0.247938 0.271742 0.738757
-0.246051 0.273752 0.745315
-0.243425 0.274989 0.749792
-0.240565 0.275997 0.753661
-0.238723 0.278222 0.760869
-0.236786 0.280408 0.767987
-0.234563 0.28232 0.77437
-0.231607 0.283399 0.778477
-0.228541 0.284377 0.782305
-0.227232 0.287614 0.792354
-0.224962 0.289725 0.799311
-0.221607 0.290491 0.802553
-0.217335 0.290059 0.802474
-0.212296 0.288569 0.79944
-0.206234 0.285606 0.792293
-0.183304 0.258722 0.718657
-0.176894 0.254559 0.708003
-0.172758 0.253567 0.706131
-0.168429 0.252246 0.703315
-0.164072 0.250826 0.700197
-0.159773 0.249438 0.697137
-0.155826 0.248551 0.695449
-0.151589 0.247152 0.692301
-0.147983 0.246741 0.691894
-0.144334 0.246239 0.691209
-0.140632 0.245619 0.690169
-0.136537 0.244266 0.687045
-0.132929 0.243739 0.686217
-0.129615 0.243738 0.686849
-0.126113 0.243373 0.686436
-0.121658 0.2411 0.680613
-0.118558 0.241463 0.682205
-0.115248 0.241404 0.68259
-0.11135 0.240075 0.679361
-0.107528 0.238834 0.676355
-0.104167 0.238572 0.6761
-0.100546 0.237679 0.674038
-0.0970555 0.237046 0.672689
-0.0933974 0.235945 0.669993
-0.0899383 0.235286 0.668533
-0.0866462 0.235032 0.668204
-0.0832833 0.234559 0.667233
-0.0799674 0.234186 0.66653
-0.0762108 0.232438 0.661894
-0.0729192 0.232018 0.661021
-0.0697737 0.232046 0.661409
-0.0665167 0.231689 0.660681
-0.0630432 0.230504 0.657577
-0.0597796 0.230003 0.656407
-0.0564667 0.229247 0.654493
-0.0532369 0.228759 0.65333
-0.0501825 0.229011 0.654266
-0.0469952 0.22865 0.653435
-0.0435983 0.227146 0.649323
-0.0404501 0.226807 0.648526
-0.0372584 0.226148 0.646801
-0.0340849 0.225491 0.645066
-0.0309406 0.224916 0.643554
-0.0277459 0.223809 0.640504
-0.0247024 0.223799 0.64058
-0.0216387 0.223577 0.64004
-0.0184324 0.22157 0.634372
-0.0154442 0.22191 0.635414
-0.0123824 0.221102 0.633158
-0.00939039 0.221423 0.634119
-0.00637454 0.221218 0.633563
-0.00336126 0.220816 0.63243
-0.000357037 0.21926 0.627983
0.00261316 0.218395 0.625501
0.00557589 0.218158 0.624806
0.00854975 0.21837 0.625384
0.0114967 0.217962 0.624175
0.0144008 0.217077 0.621589
0.017369 0.217293 0.622145
0.020344 0.217519 0.622717
0.0231134 0.21577 0.617621
0.0259086 0.214627 0.614252
0.0288347 0.21469 0.614322
0.0317026 0.214349 0.613223
0.034635 0.214464 0.613417
0.0375263 0.214327 0.612877
0.0407688 0.21607 0.617702
0.0435872 0.215483 0.615851
0.0462882 0.214426 0.612644
0.0490129 0.213598 0.610079
0.0519882 0.213892 0.61071
0.0545927 0.212712 0.607116
0.0575177 0.212836 0.607232
0.0606107 0.213539 0.608989
0.063493 0.213471 0.608527
0.0663794 0.213421 0.608107
0.0691679 0.213074 0.606825
0.071983 0.212833 0.605833
0.0749256 0.212974 0.605911
0.0773978 0.211817 0.602284
0.0804491 0.21227 0.603222
0.0831047 0.211685 0.601193
0.0861331 0.212056 0.601866
0.0889205 0.211829 0.600826
0.0918805 0.212015 0.600939
0.0947772 0.212047 0.600603
0.0970973 0.210826 0.596702
0.0992965 0.20942 0.592265
0.102482 0.210115 0.593754
0.105373 0.210184 0.593459
0.108566 0.210835 0.594787
0.111423 0.21082 0.594216
0.114184 0.210626 0.593126
0.116752 0.210094 0.591067
0.119572 0.210032 0.590315
0.122371 0.209936 0.589449
0.12499 0.209542 0.587731
0.128016 0.209833 0.58792
0.130913 0.209904 0.58747
0.133531 0.209535 0.585774
0.136476 0.209684 0.58551
0.139102 0.209345 0.583869
0.14195 0.209348 0.583165
0.145083 0.209764 0.583593
0.147762 0.20952 0.582167
0.15032 0.209116 0.580288
0.153427 0.209478 0.580517
0.156381 0.20962 0.580123
0.15934 0.209764 0.579719
0.162238 0.209825 0.579074
0.164634 0.209244 0.576649
0.166878 0.208494 0.573756
0.169738 0.208525 0.573005
0.172919 0.208944 0.573311
0.17551 0.208648 0.571652
