ply
format ascii 1.0
comment Generated by sampleExportPLY
element vertex 1634
property float x
property float y
property float z
element face 0
property list uchar int vertex_index
end_header
-0.171287 0.00351877 0.472331
-0.168896 0.00351582 0.472646
-0.165506 0.00349175 0.47009
-0.163503 0.00349666 0.471409
-0.161234 0.00349595 0.471947
-0.158111 0.00347644 0.469918
-0.155271 0.00346269 0.468637
-0.153029 0.00346206 0.469107
-0.149695 0.00343635 0.466153
-0.148472 0.00345905 0.469741
-0.145406 0.00343887 0.467487
-0.142699 0.00342666 0.466289
-0.139125 0.00339294 0.462137
-0.13697 0.0033933 0.462603
-0.134885 0.00339544 0.463293
-0.132499 0.00338996 0.462923
-0.13006 0.0033829 0.462318
-0.127091 0.00336161 0.459746
-0.124336 0.00334531 0.457837
-0.121735 0.00333268 0.45641
-0.119629 0.00333338 0.456791
-0.117136 0.00332311 0.455652
-0.114708 0.00331438 0.454708
-0.113147 0.00333082 0.457203
-0.110726 0.00332209 0.456228
-0.107993 0.00330346 0.453878
-0.105607 0.00329492 0.452901
-0.103065 0.00328109 0.451182
-0.100744 0.00327386 0.450357
-0.098235 0.00326007 0.448617
-0.0961948 0.00326158 0.448971
-0.0933827 0.0032364 0.44564
-0.0914084 0.00323979 0.446229
-0.0892023 0.00323491 0.445672
-0.0866448 0.00321677 0.443276
-0.0844451 0.00321134 0.442624
-0.082225 0.00320486 0.441816
-0.0800372 0.00319933 0.441132
-0.0776931 0.0031871 0.439516
-0.0753253 0.00317321 0.437663
-0.0731521 0.00316698 0.436859
-0.0709219 0.00315785 0.43565
-0.0685727 0.00314274 0.433607
-0.0662856 0.00312965 0.431838
-0.0637806 0.00310513 0.428486
-0.0617768 0.00310422 0.428388
-0.0595576 0.00309206 0.426733
-0.0573281 0.00307852 0.424882
-0.0555629 0.00308984 0.426459
-0.0537874 0.0031014 0.428064
-0.0519587 0.00311066 0.429349
-0.0500461 0.00311542 0.430012
-0.0485272 0.00314612 0.43425
-0.0465733 0.00315004 0.434791
-0.0443963 0.00313855 0.433203
-0.0424209 0.0031409 0.433522
-0.0405005 0.00314775 0.434462
-0.0384254 0.00314267 0.433753
-0.036331 0.00313536 0.432735
-0.0342699 0.00313024 0.43202
-0.0323909 0.00314215 0.433653
-0.0303613 0.00314006 0.433354
-0.0283256 0.003137 0.432921
-0.0262371 0.00312718 0.431554
-0.0242378 0.00312725 0.431553
-0.0223039 0.00313651 0.432821
-0.0202659 0.00313154 0.432125
-0.0181788 0.00311706 0.430117
-0.0161733 0.00311471 0.429783
-0.0141322 0.0031039 0.428284
-0.0121455 0.00310344 0.428213
-0.0101708 0.00310646 0.428623
-0.00815041 0.00309363 0.426848
-0.00615613 0.00308565 0.425743
-0.00417803 0.00308207 0.425246
-0.00220474 0.00307882 0.424796
-0.000236278 0.00308439 0.425564
0.0017297 0.0030729 0.423978
0.00365939 0.00304345 0.419917
0.00561212 0.00304696 0.420404
0.00752634 0.00303314 0.4185
0.00949456 0.00304228 0.419767
0.0114745 0.00305144 0.421037
0.0133981 0.00304512 0.420172
0.0152089 0.00301804 0.416443
0.0171731 0.00302404 0.41728
0.0190685 0.00301797 0.41645
0.0209596 0.00301237 0.415688
0.0228952 0.00301359 0.415866
0.0247953 0.0030103 0.415423
0.0265213 0.00298787 0.412338
0.0284194 0.00298654 0.412165
0.0303349 0.0029871 0.412251
0.0320864 0.00297239 0.410232
0.0343232 0.00300178 0.414297
0.0358476 0.00296904 0.409787
0.037731 0.00296784 0.409628
0.0396909 0.00297248 0.410276
0.0415263 0.0029678 0.409634
0.0432849 0.00295828 0.408323
0.045083 0.00295215 0.407478
0.0470878 0.0029595 0.408491
0.04901 0.00296128 0.408734
0.0506414 0.00294603 0.406621
0.0522674 0.00293156 0.404615
0.0543227 0.00294133 0.405952
0.0557465 0.00291741 0.402633
0.0579505 0.00293454 0.404978
0.0593693 0.00291209 0.401855
0.0610817 0.00290496 0.400843
0.0629152 0.00290384 0.400655
0.0648973 0.00290945 0.401391
0.0668229 0.00291229 0.401738
0.068369 0.00289887 0.399838
0.0701611 0.00289633 0.399431
0.0719088 0.00289212 0.39879
0.0735505 0.00288398 0.397597
0.0754811 0.00288728 0.397976
0.0771121 0.00287924 0.396785
0.0788994 0.00287727 0.396422
0.0805278 0.00286973 0.395285
0.0821523 0.00286239 0.394166
0.0842988 0.00287316 0.395532
0.0860217 0.00286934 0.394881
0.0876322 0.00286201 0.393736
0.0893011 0.00285685 0.392881
0.0911586 0.00285781 0.392857
0.0929931 0.00285802 0.392719
0.0946323 0.00285234 0.391761
0.0960838 0.00284132 0.390059
0.0980032 0.00284429 0.390265
0.099875 0.0028458 0.390258
0.101562 0.00284207 0.389521
0.103337 0.00284091 0.389122
0.10514 0.00284054 0.388817
0.106925 0.00283971 0.388436
0.108311 0.00282848 0.386619
0.109949 0.00282408 0.385721
0.111544 0.00281877 0.384685
0.113762 0.00282908 0.385765
0.114611 0.00280559 0.382221
0.117061 0.0028214 0.384016
0.118675 0.00281688 0.383025
0.120137 0.00280894 0.381553
0.121663 0.00280271 0.380298
0.1234 0.00280147 0.379703
0.125256 0.00280289 0.37945
0.126613 0.00279329 0.377688
0.128655 0.00279885 0.377958
0.130212 0.00279387 0.376784
0.131698 0.0027875 0.375405
0.133501 0.00278792 0.374923
0.13605 0.00280372 0.376485
0.137594 0.00279865 0.375224
0.139111 0.00279317 0.373889
0.141135 0.00279788 0.373898
0.142588 0.0027913 0.372378
0.144956 0.00280257 0.373219
0.146847 0.00280445 0.372787
0.147824 0.00278906 0.370043
0.149454 0.0027862 0.368946
0.15204 0.00280102 0.370169
0.154248 0.0028086 0.370413
0.156119 0.00280995 0.369816
0.157266 0.00279839 0.367506
0.159076 0.00279874 0.366751
0.160983 0.00280079 0.366205
0.163343 0.00281058 0.366657
0.165006 0.00280829 0.365524
0.168057 0.00282941 0.367426
0.169507 0.00282343 0.365801
0.170895 0.00281656 0.364065
0.172197 0.00280841 0.362172
0.173876 0.00280652 0.361098
0.176443 0.00281886 0.361863
0.177971 0.00281452 0.360499
0.179754 0.00281426 0.359681
0.18229 0.00282566 0.360377
0.183213 0.00281209 0.357918
0.185624 0.00282141 0.35841
0.187384 0.00282074 0.35767
0.189283 0.00282216 0.357242
0.191186 0.00282361 0.356866
0.193027 0.00282413 0.356426
0.194846 0.00282431 0.356003
0.196989 0.00282915 0.356227
0.198754 0.00282853 0.355826
0.20034 0.00282538 0.355175
0.202364 0.00282842 0.35537
0.204771 0.0028367 0.356293
0.206107 0.00283015 0.355422
0.206723 0.00281389 0.353403
0.208215 0.00280974 0.352972
0.209587 0.00280406 0.352417
0.210417 0.00279128 0.351036
0.212786 0.00279896 0.352291
0.214496 0.00279791 0.352513
-0.253341 0.00629849 0.487786
-0.249332 0.00625953 0.485695
-0.245577 0.00622622 0.484082
-0.243289 0.00622983 0.485377
-0.23998 0.0062071 0.484653
-0.236283 0.00617376 0.48312
-0.233223 0.00615654 0.482864
-0.229845 0.0061305 0.481926
-0.226702 0.00611023 0.481443
-0.223011 0.00607462 0.479749
-0.21956 0.00604483 0.478503
-0.21697 0.00603838 0.479097
-0.214499 0.00603512 0.479935
-0.211384 0.00601347 0.479296
-0.208187 0.00598897 0.478409
-0.204265 0.00594282 0.475765
-0.200643 0.00590447 0.473713
-0.197829 0.00588925 0.473487
-0.195337 0.00588339 0.473991
-0.192524 0.00586758 0.473667
-0.188707 0.00582045 0.470782
-0.185836 0.00580169 0.470157
-0.182649 0.00577251 0.468656
-0.180138 0.00576419 0.468818
-0.177323 0.00574582 0.468134
-0.175228 0.00575062 0.469311
-0.172866 0.00574669 0.46975
-0.170212 0.00573278 0.469346
-0.16723 0.00570735 0.467968
-0.164541 0.00569131 0.46733
-0.162389 0.00569369 0.468179
-0.159708 0.00567736 0.467463
-0.157213 0.00566722 0.46723
-0.154341 0.00564305 0.465814
-0.151603 0.00562315 0.464721
-0.148954 0.005606 0.463831
-0.147142 0.0056203 0.46552
-0.143044 0.00554641 0.459877
-0.141254 0.0055611 0.461553
-0.1383 0.0055297 0.459382
-0.135845 0.00551761 0.458792
-0.133552 0.00551182 0.458704
-0.130914 0.00549132 0.457372
-0.128736 0.00548979 0.4576
-0.126636 0.00549159 0.458087
-0.123919 0.00546621 0.456289
-0.120994 0.00543065 0.453621
-0.11881 0.00542763 0.453653
-0.116545 0.00542073 0.453343
-0.113921 0.00539662 0.451578
-0.111723 0.00539211 0.451437
-0.109593 0.00539078 0.451548
-0.107722 0.0054024 0.452731
-0.104764 0.00535888 0.449278
-0.102638 0.00535704 0.449305
-0.0998687 0.00532082 0.446436
-0.0974579 0.00530258 0.445062
-0.0951071 0.00528688 0.443888
-0.0930176 0.00528532 0.443892
-0.0907932 0.00527586 0.44322
-0.0884609 0.00525955 0.441963
-0.086112 0.00524144 0.440546
-0.084064 0.00524122 0.440622
-0.0816353 0.00521666 0.438643
-0.0797066 0.00522361 0.439305
-0.0774924 0.00521173 0.438377
-0.0754061 0.00520804 0.438129
-0.0732934 0.00520227 0.4377
-0.0710015 0.00518309 0.436136
-0.0687833 0.00516832 0.434937
-0.0665699 0.00515304 0.433688
-0.0643608 0.00513715 0.432383
-0.0617984 0.00509113 0.428536
-0.0595099 0.00506536 0.42639
-0.0574963 0.00506203 0.426128
-0.0555385 0.00506355 0.42627
-0.0536845 0.005075 0.427245
-0.0518657 0.00509077 0.42858
-0.0499662 0.00509957 0.429325
-0.0480768 0.00511016 0.43022
-0.0461935 0.00512236 0.431246
-0.0442399 0.00512751 0.431677
-0.0421214 0.00511312 0.430462
-0.0403432 0.00514068 0.432776
-0.0381556 0.00511622 0.430709
-0.036081 0.00510503 0.429758
-0.0341791 0.00511842 0.430876
-0.0321088 0.00510667 0.429878
-0.0301671 0.00511519 0.430584
-0.0281696 0.00511477 0.430539
-0.0260984 0.00509989 0.429275
-0.024094 0.00509669 0.428995
-0.022088 0.00509252 0.428634
-0.0201252 0.0050985 0.429127
-0.0179977 0.00505949 0.425834
-0.0160551 0.00506923 0.426645
-0.0139858 0.0050361 0.423849
-0.0120105 0.00503149 0.423453
-0.0100659 0.00504052 0.424208
-0.00808653 0.00503223 0.423505
-0.00610952 0.0050206 0.422521
-0.00415503 0.00502522 0.422908
-0.00219123 0.00501677 0.422195
-0.000232682 0.00497988 0.419089
0.00170543 0.0049673 0.418031
0.00364335 0.00496784 0.418078
0.00556981 0.00495781 0.417237
0.00747026 0.00493575 0.415384
0.0094337 0.00495583 0.417079
0.0113473 0.00494737 0.416373
0.0132348 0.00493163 0.415055
0.0151236 0.00492029 0.414108
0.0169978 0.0049073 0.413023
0.0188884 0.00490121 0.412519
0.0208402 0.00491063 0.413322
0.0227932 0.00491876 0.414016
0.024646 0.00490566 0.412924
0.0264215 0.00488016 0.410788
0.0283379 0.00488239 0.410986
0.0302003 0.00487561 0.410424
0.0319133 0.00484693 0.40802
0.0336778 0.00482885 0.406507
0.035615 0.00483615 0.407129
0.0375078 0.00483698 0.407207
0.0394339 0.00484182 0.40762
0.0413594 0.00484614 0.407988
0.0431838 0.00483876 0.407369
0.0449163 0.00482213 0.40597
0.0466359 0.00480551 0.40457
0.048366 0.00479122 0.403363
0.0501141 0.0047797 0.402387
0.0519649 0.00477845 0.402272
0.0537454 0.00477105 0.401637
0.0554435 0.00475708 0.400444
0.0571278 0.00474286 0.399227
0.0588241 0.00473051 0.398163
0.0608326 0.00474324 0.399206
0.0626637 0.0047418 0.399051
0.0645643 0.00474555 0.399329
0.0662913 0.00473669 0.398539
0.0681517 0.00473758 0.398564
0.0697689 0.00472197 0.397195
0.0715533 0.00471818 0.396815
0.0732651 0.00470991 0.396051
0.0748962 0.00469699 0.394888
0.0768971 0.00470733 0.395674
0.0784581 0.00469088 0.394201
0.0799476 0.004671 0.392432
0.0817565 0.00467026 0.392262
0.0836432 0.00467389 0.392451
0.0856973 0.00468652 0.393386
0.0873723 0.00467833 0.392563
0.0885955 0.00464678 0.38977
0.090698 0.00466168 0.390865
0.09237 0.00465431 0.390081
0.0939814 0.00464423 0.389059
0.095845 0.00464675 0.389082
0.0978426 0.00465556 0.389618
0.0993486 0.00464108 0.388193
0.0998396 0.00458055 0.382907
0.101707 0.00458418 0.382974
0.103336 0.00457713 0.382135
0.105473 0.00459247 0.383151
0.107739 0.00461279 0.384567
0.109406 0.00460722 0.383808
0.110384 0.00457329 0.380674
0.112261 0.00457708 0.380666
0.11359 0.00455875 0.378803
0.116237 0.00459309 0.381299
0.11777 0.00458302 0.38009
0.119486 0.0045803 0.379474
0.121186 0.00457703 0.378796
0.122708 0.0045672 0.377558
0.124395 0.00456377 0.376831
0.12688 0.00458925 0.378471
0.128421 0.00458037 0.377258
0.129696 0.00456238 0.375277
0.131252 0.00455461 0.374119
0.132635 0.00454112 0.372476
0.134531 0.00454535 0.372266
0.136387 0.00454811 0.371916
0.137887 0.0045391 0.370584
0.139505 0.00453415 0.369565
0.142249 0.00456544 0.371476
0.14397 0.00456355 0.370664
0.145811 0.00456546 0.37014
0.147476 0.00456189 0.369154
0.148796 0.00454785 0.367304
0.150959 0.00455959 0.367518
0.151978 0.00453691 0.364942
0.154091 0.00454706 0.364994
0.156874 0.00457651 0.366572
0.158723 0.00457834 0.365919
0.160663 0.00458274 0.365458
0.162528 0.00458493 0.364809
0.164548 0.00459139 0.36449
0.165919 0.00457981 0.362735
0.168938 0.00461347 0.364556
0.169872 0.00459006 0.361866
0.17152 0.00458627 0.360731
0.173199 0.00458336 0.359674
0.174908 0.00458129 0.358697
0.176854 0.00458542 0.35822
0.17889 0.00459177 0.357936
0.180617 0.00459014 0.357055
0.181793 0.00457467 0.35513
0.18398 0.00458472 0.355222
0.186592 0.00460503 0.356146
0.188509 0.00460799 0.355769
0.190504 0.00461277 0.355583
0.191872 0.00460243 0.354284
0.193231 0.00459206 0.353044
0.195989 0.00461484 0.354412
0.197972 0.0046191 0.35442
0.199647 0.00461618 0.353943
0.20158 0.00461921 0.353991
0.203411 0.00461987 0.353925
0.202862 0.00456695 0.349825
0.205715 0.00459087 0.351681
0.207341 0.00458721 0.351492
0.208219 0.00456723 0.35012
0.209375 0.00455362 0.349301
0.211325 0.00455738 0.349879
0.212521 0.00454494 0.349275
-0.249402 0.00861914 0.480176
-0.247202 0.00862677 0.481518
-0.244727 0.00862484 0.482376
-0.241588 0.00859925 0.481951
-0.236874 0.00851654 0.478347
-0.234929 0.0085327 0.480319
-0.231574 0.00849743 0.479416
-0.227732 0.00844339 0.47746
-0.22421 0.00840019 0.476116
-0.221225 0.00837644 0.475871
-0.218117 0.00834742 0.475323
-0.216122 0.00836088 0.477188
-0.210698 0.0082405 0.471395
-0.207705 0.0082136 0.470919
-0.205681 0.0082248 0.472615
-0.202317 0.00818208 0.471192
-0.197125 0.00806362 0.46537
-0.195768 0.00810112 0.468521
-0.193247 0.00809071 0.468884
-0.191139 0.00809762 0.470227
-0.188222 0.00806997 0.469539
-0.184954 0.00802641 0.467893
-0.181929 0.00799245 0.466774
-0.178904 0.00795766 0.465575
-0.175875 0.00792182 0.464282
-0.173878 0.00793211 0.465665
-0.171438 0.00792221 0.465839
-0.169086 0.00791619 0.466213
-0.166449 0.00789648 0.465754
-0.163841 0.00787762 0.465317
-0.161233 0.00785822 0.46482
-0.158401 0.00782727 0.463612
-0.155965 0.00781526 0.463498
-0.152829 0.00776729 0.461224
-0.150495 0.00775932 0.461299
-0.148078 0.00774681 0.461079
-0.144758 0.00768597 0.457956
-0.142332 0.00767143 0.457566
-0.140037 0.00766362 0.457555
-0.137262 0.00762892 0.455915
-0.135033 0.00762394 0.45603
-0.132829 0.00762023 0.4562
-0.130412 0.00760397 0.4556
-0.128091 0.0075929 0.455291
-0.125781 0.00758208 0.454978
-0.123235 0.00755638 0.453753
-0.120649 0.00752735 0.45231
-0.118208 0.00750648 0.451339
-0.115208 0.0074487 0.44813
-0.113482 0.00747266 0.449822
-0.111528 0.00748226 0.450637
-0.109227 0.00746846 0.450028
-0.106414 0.00741847 0.447223
-0.104226 0.00741096 0.446964
-0.101825 0.00738758 0.445735
-0.0993632 0.00735881 0.444166
-0.0970084 0.00733688 0.442999
-0.0948266 0.00732737 0.442569
-0.0925093 0.00730675 0.441457
-0.0901269 0.00727992 0.439959
-0.0879445 0.00726838 0.439375
-0.0859143 0.00726917 0.439527
-0.0835792 0.00724357 0.438074
-0.0813072 0.00722231 0.436874
-0.0791299 0.00720858 0.436122
-0.0771138 0.0072092 0.43623
-0.0749192 0.00719272 0.435295
-0.072902 0.00719283 0.435358
-0.0704305 0.00714684 0.432624
-0.0684153 0.00714583 0.432606
-0.0666266 0.00716911 0.434054
-0.064353 0.00714006 0.432327
-0.0624731 0.00715421 0.433212
-0.0598997 0.00708726 0.429181
-0.0575341 0.00704114 0.426407
-0.0555972 0.00704606 0.42672
-0.0537235 0.00705966 0.427554
-0.051849 0.00707418 0.428442
-0.0498741 0.00707562 0.428534
-0.0478526 0.00707029 0.428214
-0.0460268 0.00709468 0.42969
-0.043899 0.00707261 0.428351
-0.0417921 0.00705196 0.427097
-0.0397699 0.00704428 0.426626
-0.0377338 0.00703321 0.425949
-0.0358016 0.00704132 0.426432
-0.0339534 0.0070679 0.428033
-0.0320101 0.00707675 0.428559
-0.0299748 0.00706507 0.427841
-0.0278614 0.00703202 0.42583
-0.0258783 0.00702933 0.425657
-0.0238538 0.00701404 0.42472
-0.0218768 0.00701122 0.424539
-0.0200012 0.00704351 0.426485
-0.0179864 0.00702855 0.425569
-0.015814 0.00694068 0.420241
-0.0138967 0.00695586 0.421152
-0.0119553 0.00696192 0.421512
-0.00999072 0.00695425 0.421041
-0.00798866 0.00691042 0.418382
-0.00604691 0.00690739 0.418195
-0.00411128 0.00691178 0.418458
-0.00216884 0.00690235 0.417885
-0.00023212 0.00690558 0.41808
0.0017016 0.00688931 0.417095
0.00361978 0.00686091 0.415377
0.00552898 0.0068411 0.414181
0.00744251 0.00683549 0.413845
0.00932231 0.00680754 0.412158
0.0113061 0.00685212 0.414862
0.0131705 0.0068219 0.413039
0.0149962 0.00678188 0.410624
0.0168734 0.00677151 0.410004
0.018743 0.0067605 0.409346
0.0205758 0.00673947 0.408082
0.0226662 0.00679923 0.411711
0.024406 0.00675273 0.408904
0.0262889 0.00674967 0.408729
0.0282049 0.00675494 0.409059
0.029991 0.00673038 0.407581
0.0316213 0.00667586 0.404288
0.0334929 0.00667554 0.404278
0.0353426 0.00667109 0.404016
0.0371495 0.00665944 0.403318
0.0390481 0.00666455 0.403632
0.040925 0.00666565 0.403703
0.0429525 0.00669012 0.405188
0.0447331 0.0066757 0.404315
0.0464521 0.00665361 0.402975
0.0481096 0.00662475 0.401223
0.049907 0.00661659 0.400723
0.0516647 0.00660394 0.399947
0.0534186 0.00659171 0.399193
0.0549566 0.00655453 0.396925
0.0568819 0.00656447 0.397507
0.0585928 0.00654981 0.396594
0.0604557 0.00655252 0.39673
0.0623854 0.00656209 0.397276
0.0641859 0.00655791 0.396984
0.0657871 0.00653418 0.395504
0.0673382 0.0065069 0.393803
0.0689403 0.00648584 0.392473
0.0710912 0.00651618 0.394247
0.0727276 0.00649901 0.39314
0.0744514 0.00649031 0.392537
0.0763764 0.00649914 0.392989
0.0780069 0.00648309 0.391927
0.0794792 0.00645491 0.390125
0.0813416 0.00645897 0.390264
0.0831154 0.00645597 0.389966
0.0852358 0.00647945 0.391259
0.0867186 0.00645448 0.389617
0.088136 0.00642578 0.38774
0.0898364 0.00641844 0.387142
0.091764 0.0064273 0.387511
0.0935961 0.00642927 0.387453
0.0954329 0.00643148 0.387398
0.0964064 0.0063765 0.383887
0.0979747 0.00636215 0.382813
0.0996468 0.00635493 0.382156
0.101308 0.00634729 0.38146
0.103295 0.00635994 0.38197
0.104723 0.0063384 0.380413
0.10644 0.0063347 0.379914
0.107992 0.00632149 0.378831
0.109791 0.00632296 0.378613
0.111301 0.00630799 0.377395
0.112842 0.00629523 0.376295
0.11479 0.00630519 0.376537
0.116267 0.00628937 0.375223
0.117652 0.00626913 0.373631
0.119287 0.00626263 0.372842
0.122214 0.00632314 0.376021
0.123338 0.00628999 0.37361
0.124729 0.00627117 0.372036
0.126261 0.00625988 0.370891
0.128129 0.00626532 0.37072
0.129821 0.00626213 0.370019
0.132339 0.00629835 0.371623
0.134156 0.00630065 0.371204
0.135921 0.00630055 0.370623
0.137539 0.00629367 0.369624
0.139322 0.00629443 0.369055
0.14114 0.00629677 0.368557
0.142881 0.0062956 0.367835
0.144052 0.00626967 0.365649
0.146817 0.00631293 0.367478
0.148043 0.00628975 0.365417
0.149857 0.00629181 0.364808
0.151732 0.00629636 0.364326
0.153728 0.00630574 0.364105
0.155571 0.00630874 0.363499
0.157206 0.00630333 0.362394
0.1591 0.00630828 0.361874
0.162186 0.00635989 0.364013
0.163924 0.00635809 0.363081
0.165272 0.00634136 0.361292
0.166736 0.00632937 0.359776
0.168705 0.00633664 0.359354
0.170039 0.00632011 0.357589
0.172287 0.00633759 0.357755
0.173326 0.00631065 0.355427
0.175508 0.00632549 0.35547
0.177362 0.00632828 0.354855
0.178234 0.00629636 0.352321
0.181321 0.00634255 0.354187
0.182921 0.00633631 0.353157
0.185319 0.00635758 0.353698
0.187686 0.00637739 0.354199
0.189728 0.0063859 0.354119
0.188792 0.00629495 0.348585
0.192303 0.00635256 0.351337
0.195031 0.00638351 0.352669
0.1975 0.00640549 0.353567
0.197722 0.00635487 0.350524
0.198916 0.0063361 0.349308
0.199829 0.0063088 0.347691
0.202191 0.00632731 0.348667
0.204089 0.0063311 0.348901
0.206217 0.00634192 0.349591
0.20731 0.006321 0.348597
0.207847 0.0062836 0.346759
0.209445 0.00627864 0.346773
0.212311 0.00631146 0.348938
-0.246413 0.0109054 0.474386
-0.244906 0.0109449 0.477008
-0.242657 0.0109516 0.478257
-0.237217 0.010813 0.473191
-0.236072 0.0108694 0.476685
-0.232112 0.0107959 0.474514
-0.228712 0.0107474 0.473447
-0.226275 0.0107435 0.47436
-0.221781 0.0106408 0.470911
-0.218865 0.0106125 0.470748
-0.215288 0.0105511 0.469111
-0.212674 0.0105361 0.469527
-0.209674 0.0105015 0.469055
-0.206497 0.0104572 0.468131
-0.202545 0.0103722 0.465363
-0.199548 0.0103346 0.464696
-0.196675 0.0103027 0.464262
-0.193841 0.0102722 0.463862
-0.191162 0.0102492 0.463781
-0.188907 0.0102487 0.464691
-0.184378 0.0101234 0.459905
-0.183012 0.0101708 0.462938
-0.181177 0.0101929 0.464803
-0.177404 0.0101052 0.46163
-0.174966 0.0100923 0.461842
-0.172466 0.0100754 0.461845
-0.170044 0.0100627 0.462012
-0.16791 0.010067 0.462931
-0.164975 0.0100227 0.461593
-0.162462 0.0100032 0.461364
-0.158896 0.0099174 0.458048
-0.156349 0.00989373 0.45757
-0.155208 0.00995963 0.461213
-0.151733 0.00987554 0.457887
-0.149438 0.00986686 0.458029
-0.146284 0.00980038 0.455462
-0.143695 0.00977041 0.454564
-0.141358 0.00975682 0.454405
-0.138899 0.00973437 0.453811
-0.13689 0.00974313 0.454652
-0.134442 0.00972054 0.454009
-0.132177 0.00971058 0.453935
-0.130158 0.00971871 0.454688
-0.126721 0.00961948 0.450397
-0.12488 0.00964006 0.451695
-0.122829 0.00964492 0.45224
-0.120224 0.00960564 0.450698
-0.117393 0.00954652 0.448206
-0.114946 0.00951712 0.44709
-0.112827 0.0095143 0.447208
-0.11096 0.00953301 0.448324
-0.108389 0.00949079 0.44656
-0.105843 0.00944915 0.444807
-0.103191 0.0093962 0.442507
-0.101006 0.00938453 0.442137
-0.0987795 0.00936837 0.441544
-0.0964291 0.00933953 0.44034
-0.0944496 0.00934616 0.440798
-0.0921642 0.00932214 0.439798
-0.0897827 0.00928709 0.438268
-0.0876012 0.00927158 0.43765
-0.0856344 0.0092786 0.438085
-0.0834218 0.00925868 0.43724
-0.0808862 0.00920103 0.434604
-0.0787959 0.00919237 0.434273
-0.0766426 0.00917572 0.433557
-0.0744905 0.00915832 0.432798
-0.072371 0.00914408 0.432181
-0.0702028 0.00912269 0.43122
-0.0680872 0.00910709 0.430526
-0.0660001 0.00909448 0.429969
-0.0636914 0.00904958 0.427879
-0.0616794 0.00904532 0.427705
-0.0595359 0.00902085 0.426571
-0.0575155 0.00901399 0.426266
-0.0555459 0.00901489 0.426324
-0.0536467 0.00902771 0.426941
-0.0517481 0.0090416 0.427607
-0.049595 0.00901037 0.426136
-0.0476453 0.00901503 0.426359
-0.0457635 0.0090335 0.427232
-0.0438735 0.00905195 0.428103
-0.0416451 0.008999 0.425595
-0.0395456 0.00897005 0.424221
-0.0375144 0.00895437 0.423473
-0.0357726 0.00900986 0.426089
-0.0337333 0.0089925 0.42526
-0.0318154 0.00900738 0.425954
-0.0297858 0.00899051 0.425147
-0.0277028 0.00895398 0.423409
-0.0256579 0.00892514 0.422035
-0.0236844 0.00891843 0.421708
-0.0216144 0.00887088 0.41945
-0.0196805 0.00887537 0.419652
-0.0176777 0.00884629 0.418268
-0.0156865 0.0088166 0.416856
-0.0137324 0.00880236 0.416175
-0.0118558 0.0088413 0.418009
-0.00991457 0.00883776 0.417836
-0.00793527 0.00879037 0.415591
-0.00601549 0.00879966 0.416026
-0.00408854 0.00880231 0.416148
-0.00214665 0.00874874 0.413614
-0.000229928 0.0087598 0.414136
0.00169472 0.00878683 0.415415
0.00357596 0.00867974 0.410353
0.00546947 0.00866645 0.409728
0.00736356 0.0086607 0.409459
0.00928689 0.00868465 0.410596
0.0111895 0.00868436 0.410588
0.0131073 0.00869425 0.411062
0.0148463 0.00859806 0.406521
0.016754 0.00861026 0.407106
0.0186404 0.00861014 0.40711
0.0204924 0.00859559 0.40643
0.0222607 0.00855134 0.404348
0.0240153 0.00850914 0.402362
0.0259 0.00851577 0.402685
0.0279 0.00855687 0.404638
0.0296491 0.00852071 0.402937
0.0314097 0.00849194 0.401586
0.0333045 0.00850063 0.402005
0.0351812 0.00850403 0.402173
0.0370353 0.00850189 0.402079
0.0386689 0.00845176 0.399713
0.0405247 0.00845257 0.399755
0.0424153 0.00846026 0.400121
0.0438634 0.00838271 0.396454
0.0458034 0.00840164 0.397347
0.0478272 0.00843389 0.398868
0.049384 0.00838445 0.396522
0.0513218 0.00840091 0.397291
0.0530788 0.00838767 0.396652
0.0547762 0.00836622 0.39562
0.056498 0.00834974 0.394821
0.0583988 0.00835995 0.395278
0.0603134 0.00837143 0.395792
0.0621925 0.00837746 0.396043
0.0637343 0.00833901 0.394186
0.0655098 0.00833243 0.393831
0.0668089 0.00826726 0.390701
0.0686878 0.00827538 0.391029
0.0708463 0.0083159 0.392882
0.0721103 0.00825202 0.389795
0.0740584 0.00826764 0.390458
0.0757388 0.00825334 0.389699
0.0774781 0.00824598 0.389261
0.0789642 0.00821262 0.387588
0.0808922 0.00822569 0.388097
0.0830306 0.00825911 0.389558
0.0843858 0.00821486 0.387346
0.0863902 0.00823435 0.38813
0.0875038 0.00816986 0.384946
0.0892669 0.00816737 0.384675
0.0910642 0.00816806 0.384543
0.0926863 0.00815332 0.383673
0.0941662 0.00812685 0.382241
0.0953043 0.00807241 0.379483
0.097463 0.00810484 0.380797
0.0993754 0.00811599 0.381098
0.101113 0.00811276 0.38071
0.102801 0.00810563 0.380126
0.104756 0.00811948 0.380512
0.105597 0.00804802 0.376887
0.107435 0.00805357 0.376857
0.10852 0.00800349 0.37421
0.110652 0.00803091 0.375172
0.111993 0.008001 0.37344
0.113917 0.00801304 0.373651
0.115608 0.00800853 0.373073
0.117254 0.00800109 0.372342
0.118947 0.00799708 0.371754
0.120947 0.00801348 0.372096
0.12297 0.00803091 0.372467
0.123782 0.00796991 0.369184
0.125639 0.00797692 0.369036
0.127455 0.00798118 0.368741
0.128873 0.00796074 0.367288
0.131649 0.00802362 0.369655
0.133482 0.00802815 0.369311
0.134713 0.0079968 0.367299
0.137261 0.00804343 0.368846
0.138997 0.00804188 0.368162
0.140803 0.00804439 0.367643
0.142217 0.00802472 0.366093
0.143337 0.00798911 0.3638
0.145116 0.0079907 0.363186
0.146943 0.00799484 0.362668
0.148801 0.00800057 0.362204
0.151407 0.00804587 0.363509
0.152343 0.00800242 0.360789
0.153994 0.0079971 0.359777
0.156094 0.00801497 0.359795
0.157478 0.00799606 0.358149
0.158981 0.00798356 0.356784
0.16123 0.00800839 0.357077
0.163203 0.00801911 0.356734
0.164943 0.00801825 0.355871
0.167776 0.00807004 0.35734
0.169197 0.00805347 0.355783
0.170365 0.00802539 0.35373
0.172168 0.00802745 0.35302
0.174616 0.00805926 0.353631
0.176078 0.00804539 0.352256
0.178443 0.00807263 0.352706
0.180279 0.00807561 0.352124
0.182584 0.00809939 0.352481
0.183887 0.00807866 0.350942
0.185719 0.00808135 0.350466
0.188311 0.00811675 0.351455
0.189643 0.00809768 0.350138
0.191783 0.00811313 0.350372
0.192967 0.00808825 0.348924
0.194164 0.00806436 0.347585
0.193857 0.00797899 0.343664
0.19816 0.00808322 0.347976
0.199333 0.00805902 0.346825
0.201425 0.00807207 0.347346
0.203356 0.00807852 0.34765
0.204839 0.00806723 0.347259
0.205498 0.00802392 0.345556
0.206175 0.00798209 0.343979
0.207018 0.00794731 0.342767
0.2107 0.00802118 0.346305
-0.245612 0.0132518 0.472802
-0.242945 0.0132363 0.473143
-0.238565 0.0131261 0.470144
-0.234404 0.013026 0.46753
-0.233146 0.0130868 0.470723
-0.229458 0.0130111 0.469035
-0.225777 0.0129342 0.467315
-0.221652 0.01283 0.464612
-0.219055 0.012813 0.465067
-0.216805 0.0128161 0.466259
-0.213604 0.0127624 0.465382
-0.209727 0.0126668 0.462962
-0.20834 0.0127212 0.466013
-0.205147 0.0126652 0.465014
-0.201831 0.0126003 0.463663
-0.198855 0.0125554 0.463026
-0.195657 0.0124952 0.461801
-0.192515 0.0124373 0.460632
-0.189791 0.0124054 0.460399
-0.185848 0.0122921 0.457112
-0.18362 0.0122909 0.457961
-0.18186 0.0123213 0.45997
-0.17934 0.0123003 0.460038
-0.175556 0.0121911 0.456772
-0.17366 0.0122118 0.458344
-0.171222 0.0121946 0.458466
-0.167876 0.0121112 0.456073
-0.165769 0.0121164 0.456984
-0.162955 0.0120692 0.455894
-0.160296 0.0120325 0.455169
-0.158172 0.0120354 0.455917
-0.15579 0.0120186 0.455894
-0.152584 0.0119368 0.453377
-0.151087 0.0119882 0.455897
-0.149029 0.011996 0.456737
-0.145359 0.0118723 0.452545
-0.142803 0.0118373 0.451705
-0.140063 0.0117858 0.45021
-0.13809 0.0117982 0.451132
-0.136055 0.0118056 0.451845
-0.133425 0.0117608 0.450541
-0.130211 0.0116623 0.447154
-0.128625 0.0117088 0.449305
-0.126899 0.0117437 0.451
-0.124206 0.011689 0.44923
-0.121518 0.0116327 0.447384
-0.119495 0.0116394 0.447939
-0.117127 0.0116121 0.447169
-0.114442 0.0115516 0.445107
-0.112174 0.0115319 0.444597
-0.110325 0.0115553 0.445735
-0.10824 0.0115545 0.445925
-0.104995 0.0114273 0.441222
-0.102884 0.011421 0.441172
-0.100588 0.0113935 0.440289
-0.0982006 0.0113542 0.438939
-0.0961096 0.0113483 0.438865
-0.0940775 0.0113492 0.439046
-0.0913446 0.0112637 0.435873
-0.0893112 0.0112626 0.435953
-0.086796 0.0111993 0.433615
-0.084796 0.011201 0.433785
-0.0827046 0.0111904 0.43347
-0.0806692 0.011187 0.433427
-0.078577 0.0111755 0.433057
-0.0764132 0.0111528 0.43225
-0.0739825 0.0110889 0.429838
-0.0717746 0.0110558 0.428612
-0.0697411 0.0110485 0.428378
-0.0677506 0.0110477 0.428392
-0.0656327 0.0110255 0.427569
-0.0635299 0.0110045 0.426789
-0.0614905 0.0109935 0.426391
-0.0591228 0.0109212 0.423608
-0.0571517 0.0109196 0.423567
-0.0552453 0.0109307 0.424014
-0.0532383 0.0109221 0.423689
-0.0512799 0.010923 0.423736
-0.0493717 0.0109353 0.424216
-0.047495 0.0109557 0.425013
-0.0453762 0.0109197 0.423617
-0.0432118 0.010869 0.421647
-0.0413378 0.0108899 0.422456
-0.0392511 0.0108541 0.421064
-0.0372887 0.0108508 0.420927
-0.0353618 0.0108579 0.421198
-0.0334044 0.010856 0.421116
-0.0314645 0.0108599 0.421258
-0.0294651 0.0108425 0.420572
-0.0274588 0.0108198 0.419683
-0.0254858 0.0108078 0.419208
-0.0234666 0.0107726 0.417833
-0.0214788 0.0107468 0.416822
-0.0195382 0.0107419 0.416621
-0.0175719 0.0107202 0.415771
-0.0155947 0.0106856 0.414421
-0.0136652 0.0106786 0.414143
-0.0116761 0.0106152 0.411677
-0.00980922 0.0106598 0.413402
-0.00784108 0.0105893 0.410663
-0.00595674 0.0106231 0.411969
-0.00404935 0.0106282 0.412165
-0.00213801 0.0106228 0.411956
-0.000228022 0.0105907 0.410709
0.00166735 0.0105392 0.40871
0.00355658 0.0105243 0.408134
0.00543543 0.0104997 0.407183
0.00733573 0.0105185 0.407917
0.00921028 0.0105003 0.407214
0.0111615 0.0105608 0.409568
0.0129462 0.010469 0.406014
0.0147863 0.0104397 0.404883
0.0166372 0.0104237 0.404272
0.018357 0.0103372 0.400924
0.0202857 0.0103734 0.402336
0.0221479 0.0103723 0.402303
0.0239563 0.0103481 0.401376
0.0258132 0.010347 0.40134
0.0276247 0.0103289 0.400648
0.0294309 0.0103113 0.399975
0.0311567 0.0102693 0.398354
0.032989 0.0102651 0.398199
0.0349867 0.0103101 0.399952
0.0365767 0.0102365 0.397101
0.0384933 0.0102569 0.397899
0.0402881 0.0102445 0.397422
0.0418314 0.0101721 0.394612
0.0436491 0.0101696 0.394517
0.0455562 0.0101873 0.395202
0.0473187 0.0101726 0.394626
0.0492922 0.0102026 0.395783
0.0510694 0.0101913 0.395335
0.0527428 0.0101608 0.394138
0.0542321 0.0100981 0.391687
0.0560312 0.0100952 0.391555
0.0582377 0.0101637 0.394184
0.0593342 0.0100401 0.389362
0.0618221 0.0101523 0.393679
0.0627926 0.010016 0.388356
0.0649145 0.0100659 0.390246
0.0664778 0.0100288 0.388758
0.0682333 0.0100219 0.388434
0.0699108 0.0100042 0.387685
0.071181 0.00993055 0.384763
0.073334 0.00998065 0.386628
0.0753496 0.0100101 0.387686
0.0766863 0.0099501 0.385272
0.0784692 0.0099494 0.385146
0.0801516 0.00993628 0.384532
0.0819105 0.00993301 0.384289
0.0842217 0.00999542 0.386579
0.0855492 0.00994092 0.384336
0.0871236 0.00991675 0.383258
0.0888417 0.00990958 0.382827
0.0904215 0.00988756 0.381812
0.0922206 0.00988991 0.381727
0.093231 0.0098092 0.378426
0.0948326 0.00979253 0.377586
0.0970075 0.00983458 0.378998
0.0985049 0.00980768 0.377739
0.100412 0.0098218 0.378047
0.102081 0.00981255 0.377443
0.103268 0.009758 0.375084
0.105541 0.00980627 0.376663
0.106621 0.00974387 0.373977
0.108896 0.00979097 0.375479
0.109745 0.00971045 0.372073
0.111243 0.0096889 0.370914
0.112716 0.00966582 0.369682
0.114752 0.0096911 0.370283
0.11613 0.00966079 0.368744
0.117564 0.00963602 0.367401
0.120111 0.00970187 0.369494
0.12139 0.00966488 0.367651
0.122974 0.00965281 0.36674
0.12502 0.00967694 0.367186
0.126952 0.00969162 0.367252
0.128158 0.0096513 0.365216
0.130274 0.00967957 0.365758
0.13189 0.0096705 0.364868
0.134782 0.00975402 0.367447
0.135748 0.00969778 0.364741
0.13709 0.00966951 0.363072
0.138428 0.00964165 0.361402
0.140157 0.00964138 0.360749
0.142247 0.00966568 0.360995
0.144662 0.00971112 0.362006
0.145702 0.00966436 0.359563
0.147701 0.00968151 0.359482
0.148602 0.00962715 0.356731
0.151474 0.00970025 0.358686
0.153264 0.00970318 0.358027
0.155616 0.0097413 0.358649
0.156673 0.00969834 0.356274
0.158859 0.00972542 0.356464
0.160706 0.00973142 0.355871
0.162092 0.00970968 0.35426
0.163918 0.00971445 0.353615
0.165406 0.00969934 0.352248
0.167366 0.00971193 0.351892
0.169576 0.00973857 0.352049
0.171591 0.00975363 0.351796
0.173752 0.00977656 0.35184
0.175551 0.00977892 0.351164
0.17791 0.0098121 0.351616
0.179664 0.00981156 0.350889
0.181177 0.009798 0.349732
0.182754 0.00978814 0.348749
0.184618 0.00979371 0.348361
0.186464 0.00979821 0.347983
0.188349 0.00980468 0.347728
0.189323 0.009764 0.345859
0.191666 0.00979408 0.346557
0.193522 0.00979889 0.346422
0.195411 0.00980529 0.346409
0.197507 0.00982188 0.346821
0.199236 0.00982011 0.346653
0.200286 0.00978519 0.345382
0.202352 0.00980006 0.345937
0.203449 0.00976818 0.344909
0.204396 0.00972967 0.343712
0.20505 0.00967801 0.342113
0.206165 0.00964875 0.341367
0.208085 0.0096574 0.342022
-0.244108 0.0155378 0.469856
-0.23991 0.0154202 0.467178
-0.237612 0.0154235 0.468209
-0.233636 0.0153169 0.465937
-0.231174 0.0153084 0.466679
-0.228265 0.0152698 0.466532
-0.223948 0.0151353 0.463464
-0.220909 0.0150852 0.462987
-0.218303 0.015064 0.4634
-0.215334 0.015017 0.463025
-0.210985 0.0148717 0.459608
-0.208498 0.0148559 0.46018
-0.205525 0.0148048 0.459646
-0.202981 0.0147838 0.460034
-0.200491 0.0147663 0.460515
-0.19522 0.0145413 0.454494
-0.193711 0.0145945 0.457141
-0.191822 0.01462 0.458907
-0.18764 0.0144692 0.455114
-0.184654 0.0144082 0.454109
-0.182092 0.0143793 0.454087
-0.178938 0.0143023 0.452517
-0.176566 0.0142867 0.45286
-0.173948 0.0142505 0.452527
-0.171611 0.0142368 0.452877
-0.169596 0.0142497 0.454053
-0.166604 0.0141798 0.452561
-0.164323 0.0141694 0.45294
-0.160722 0.0140434 0.449594
-0.158858 0.0140678 0.451032
-0.157158 0.0141076 0.452943
-0.153518 0.0139719 0.449193
-0.151026 0.0139384 0.448698
-0.149271 0.0139729 0.450368
-0.146628 0.013924 0.449331
-0.144234 0.0138978 0.448998
-0.14191 0.0138776 0.448837
-0.139505 0.0138487 0.448373
-0.137101 0.0138191 0.447862
-0.135106 0.0138304 0.448657
-0.132763 0.0138058 0.448268
-0.129759 0.0137106 0.445564
-0.127495 0.0136918 0.445321
-0.125695 0.0137231 0.446689
-0.122226 0.0135701 0.442037
-0.120128 0.0135666 0.442236
-0.117788 0.0135352 0.441508
-0.115741 0.0135369 0.441844
-0.113417 0.0135059 0.441094
-0.111227 0.0134898 0.440818
-0.109394 0.0135172 0.441948
-0.10633 0.0133907 0.438033
-0.104692 0.0134424 0.439928
-0.10196 0.0133527 0.437187
-0.0997627 0.013331 0.436655
-0.0975908 0.0133118 0.436193
-0.0957555 0.0133386 0.437229
-0.093035 0.0132407 0.434162
-0.0911103 0.0132541 0.434738
-0.0885913 0.0131798 0.432423
-0.0864641 0.0131616 0.431941
-0.0843609 0.0131464 0.431544
-0.0823326 0.0131423 0.431507
-0.0803645 0.0131479 0.431778
-0.0782442 0.0131283 0.431211
-0.0758741 0.0130646 0.42919
-0.0740573 0.0130952 0.430263
-0.071649 0.0130202 0.427853
-0.0696331 0.0130141 0.427706
-0.0672292 0.0129331 0.425088
-0.0652162 0.0129247 0.424849
-0.0634042 0.0129568 0.425939
-0.0611686 0.0129016 0.424154
-0.0589665 0.01285 0.422484
-0.056967 0.0128406 0.422195
-0.0548921 0.0128129 0.4213
-0.0527799 0.0127742 0.420038
-0.0509893 0.0128133 0.421334
-0.0492289 0.0128634 0.422988
-0.0471935 0.0128428 0.422314
-0.0447772 0.0127123 0.418024
-0.0428818 0.0127246 0.418427
-0.0410572 0.01276 0.41959
-0.0389177 0.0126962 0.417488
-0.0369712 0.012692 0.417345
-0.0350523 0.0126974 0.417514
-0.0331706 0.0127176 0.418172
-0.0312724 0.0127337 0.418691
-0.0292614 0.0127028 0.417668
-0.0273659 0.0127213 0.418267
-0.0252986 0.0126567 0.416133
-0.0233372 0.0126387 0.415533
-0.0214041 0.0126343 0.415378
-0.0194476 0.0126138 0.414696
-0.0174907 0.0125885 0.413855
-0.01552 0.0125458 0.412442
-0.0135347 0.0124776 0.410195
-0.0116251 0.0124684 0.409886
-0.00969464 0.0124288 0.408579
-0.00780165 0.0124298 0.408604
-0.00591084 0.0124358 0.4088
-0.00403178 0.012484 0.410383
-0.00213074 0.0124895 0.410561
-0.0002257 0.012367 0.406534
0.00165277 0.0123247 0.405143
0.00351916 0.0122853 0.403847
0.00537414 0.0122472 0.402598
0.00725601 0.0122742 0.40349
0.00920273 0.0123774 0.406886
0.0109999 0.0122785 0.403642
0.0128287 0.0122386 0.402335
0.0147036 0.0122472 0.402625
0.0164753 0.0121776 0.400344
0.0183709 0.0122043 0.401231
0.0202142 0.0121947 0.400922
0.0219105 0.0121054 0.397995
0.0235799 0.0120163 0.395074
0.0254921 0.0120548 0.396351
0.0274529 0.0121096 0.398161
0.0292834 0.0121036 0.397973
0.0310176 0.012061 0.396578
0.0327305 0.0120152 0.395081
0.0345636 0.0120161 0.395117
0.0364145 0.0120228 0.395342
0.0381329 0.0119871 0.394175
0.0399073 0.0119716 0.393666
0.0415776 0.0119275 0.392219
0.0433496 0.0119151 0.391809
0.0451534 0.0119121 0.391707
0.0469593 0.0119098 0.391627
0.0486997 0.0118917 0.391024
0.0505265 0.0118953 0.39113
0.0522441 0.0118738 0.390408
0.0538105 0.0118205 0.388638
0.0557059 0.0118406 0.389277
0.0572281 0.0117825 0.387344
0.0586881 0.0117157 0.385116
0.0604312 0.0117075 0.384815
0.062246 0.0117134 0.384969
0.0642463 0.0117529 0.386221
0.0660531 0.0117558 0.386266
0.0679814 0.0117795 0.38699
0.0694327 0.0117216 0.385024
0.0708419 0.0116596 0.382919
0.0724188 0.0116276 0.381792
0.0741415 0.0116199 0.381458
0.076123 0.0116523 0.382428
0.077861 0.0116467 0.382147
0.0797515 0.0116637 0.382597
0.0814996 0.0116595 0.382346
0.0825464 0.0115574 0.378872
0.08443 0.0115742 0.379291
0.0859197 0.0115375 0.377944
0.0877217 0.0115433 0.377981
0.0897572 0.011579 0.378987
0.0918481 0.0116204 0.380164
0.0927225 0.0115091 0.37634
0.0942862 0.011486 0.375388
0.0960386 0.0114863 0.375189
0.0976987 0.0114758 0.374623
0.0988232 0.0114038 0.37204
0.100832 0.0114346 0.372798
0.102272 0.0114009 0.37144
0.104346 0.0114378 0.372369
0.106045 0.0114332 0.371929
0.107685 0.0114223 0.371272
0.109249 0.0114039 0.370357
0.110827 0.0113875 0.369493
0.112539 0.0113852 0.369069
0.114153 0.0113732 0.368313
0.116054 0.0113897 0.368466
0.117957 0.011406 0.368593
0.119478 0.0113853 0.367508
0.121139 0.0113784 0.366853
0.122875 0.0113786 0.366406
0.124734 0.0113901 0.366304
0.125611 0.0113128 0.363332
0.127978 0.0113699 0.364659
0.129139 0.0113198 0.362528
0.130635 0.0113001 0.361352
0.132969 0.0113524 0.362461
0.134499 0.0113356 0.36134
0.135925 0.0113105 0.35994
0.137606 0.0113071 0.359208
0.139498 0.0113208 0.359003
0.141624 0.0113529 0.359362
0.143711 0.0113813 0.359576
0.14533 0.0113722 0.358592
0.147062 0.0113722 0.357875
0.148067 0.0113166 0.355395
0.14975 0.0113135 0.354553
0.151762 0.0113351 0.354467
0.153644 0.0113465 0.354049
0.155121 0.0113281 0.352691
0.157039 0.011342 0.352326
0.158667 0.0113348 0.351302
0.160757 0.0113605 0.351289
0.163039 0.0113991 0.351667
0.165143 0.0114245 0.351636
0.166883 0.0114244 0.350824
0.168686 0.0114286 0.350152
0.170402 0.011427 0.349309
0.172014 0.0114184 0.348276
0.17523 0.0115154 0.350475
0.176603 0.0114906 0.34899
0.178059 0.0114716 0.347713
0.179879 0.0114762 0.347188
0.181574 0.0114729 0.346462
0.183568 0.0114883 0.346346
0.185534 0.0115016 0.346218
0.186909 0.0114785 0.345043
0.18847 0.011467 0.344279
0.190602 0.0114902 0.344614
0.191442 0.0114359 0.342685
0.191628 0.0113438 0.339693
0.193062 0.0113265 0.339009
0.197945 0.0115101 0.344403
0.197698 0.0113948 0.340919
0.199713 0.0114107 0.341429
0.200335 0.0113475 0.339636
0.203204 0.0114115 0.341717
0.204177 0.0113689 0.340669
0.205883 0.0113674 0.340916
0.20922 0.0114553 0.343907
-0.242948 0.01782 0.467565
-0.238749 0.0176835 0.464855
-0.235649 0.0176265 0.464274
-0.23292 0.0175964 0.46444
-0.229907 0.017544 0.46405
-0.227039 0.0175017 0.463952
-0.221971 0.0172872 0.459295
-0.219964 0.0173091 0.460927
-0.216775 0.0172375 0.460079
-0.212689 0.0170923 0.457259
-0.209752 0.0170373 0.456842
-0.206234 0.0169333 0.455102
-0.204122 0.0169439 0.456428
-0.200681 0.0168431 0.454741
-0.197207 0.0167373 0.452893
-0.194112 0.0166615 0.451835
-0.191602 0.0166349 0.452086
-0.189452 0.0166392 0.45316
-0.186278 0.0165527 0.451736
-0.18383 0.0165293 0.452009
-0.180584 0.0164328 0.450251
-0.178192 0.0164126 0.450557
-0.175158 0.016332 0.449178
-0.173252 0.0163559 0.450646
-0.171074 0.0163545 0.451392
-0.168555 0.0163198 0.451197
-0.164794 0.0161627 0.447581
-0.162611 0.0161581 0.448158
-0.160127 0.0161231 0.447867
-0.157186 0.0160404 0.446223
-0.155137 0.0160479 0.44706
-0.152656 0.0160102 0.446615
-0.149621 0.0159125 0.444468
-0.147468 0.0159072 0.444875
-0.14551 0.015923 0.445851
-0.143107 0.0158901 0.445439
-0.140792 0.0158658 0.44525
-0.138418 0.0158343 0.444832
-0.135737 0.015766 0.44336
-0.133505 0.0157485 0.443292
-0.131772 0.0157904 0.444878
-0.128595 0.0156578 0.441526
-0.126282 0.0156277 0.441044
-0.124081 0.0156108 0.440913
-0.121645 0.0155632 0.439898
-0.119446 0.0155448 0.43969
-0.117192 0.0155184 0.439238
-0.114989 0.015498 0.43894
-0.112707 0.015466 0.438298
-0.110685 0.0154693 0.438639
-0.108196 0.0154061 0.437081
-0.105024 0.0152413 0.432624
-0.102976 0.0152364 0.432688
-0.101251 0.01528 0.43412
-0.0992819 0.015288 0.434525
-0.0971889 0.0152767 0.434373
-0.0945811 0.0151823 0.431844
-0.0923915 0.0151524 0.431138
-0.0900653 0.0150983 0.429732
-0.08816 0.0151138 0.430299
-0.0856734 0.0150282 0.427973
-0.083876 0.0150622 0.429047
-0.0819868 0.015081 0.429678
-0.0799054 0.0150645 0.429296
-0.0776662 0.0150166 0.428012
-0.0754415 0.0149691 0.42673
-0.0733062 0.0149373 0.425887
-0.0710568 0.0148798 0.424306
-0.0689752 0.0148552 0.423655
-0.0667524 0.0147978 0.422064
-0.0651713 0.0148835 0.424549
-0.0628361 0.014797 0.422115
-0.0608496 0.0147896 0.421936
-0.0587471 0.0147527 0.420907
-0.0567242 0.0147339 0.420391
-0.0546932 0.0147115 0.41977
-0.0525849 0.014666 0.418484
-0.0506351 0.0146629 0.418405
-0.0486506 0.014649 0.418017
-0.0465843 0.0146084 0.416862
-0.0445753 0.014583 0.416139
-0.042715 0.0146061 0.4168
-0.0407809 0.0146051 0.416768
-0.038832 0.0145983 0.416571
-0.0368383 0.0145731 0.415847
-0.0348846 0.0145618 0.415519
-0.0330209 0.014589 0.416287
-0.0310809 0.0145838 0.41613
-0.0290111 0.0145129 0.414099
-0.0269973 0.014462 0.412638
-0.0249619 0.0143909 0.4106
-0.0230531 0.014387 0.410481
-0.0212013 0.0144212 0.411447
-0.0192928 0.0144198 0.4114
-0.0173425 0.0143834 0.410353
-0.0153924 0.0143383 0.409059
-0.0135046 0.0143466 0.409289
-0.0115476 0.0142723 0.407161
-0.00963299 0.0142313 0.405988
-0.00774254 0.0142149 0.405516
-0.0058613 0.0142104 0.405382
-0.00397172 0.0141717 0.404277
-0.00208315 0.0140708 0.401397
-0.000223851 0.0141344 0.403211
0.00164503 0.0141359 0.403253
0.00349884 0.0140752 0.401522
0.00535131 0.0140531 0.400895
0.00719288 0.0140212 0.399987
0.00907361 0.014063 0.401184
0.0108794 0.0139942 0.399228
0.0127357 0.0140009 0.399424
0.0145833 0.0139976 0.399336
0.0164087 0.0139761 0.39873
0.0182552 0.0139751 0.398711
0.0200234 0.0139199 0.397143
0.0217239 0.0138309 0.394612
0.0235244 0.0138144 0.39415
0.0253743 0.0138272 0.394523
0.0272379 0.0138453 0.395047
0.0290442 0.0138337 0.394726
0.0307339 0.0137714 0.392954
0.0325144 0.0137543 0.392475
0.0343406 0.0137574 0.39257
0.0361658 0.0137598 0.392644
0.0379442 0.0137451 0.392226
0.0396696 0.0137133 0.391322
0.0413869 0.0136817 0.39042
0.0430739 0.0136431 0.389316
0.044863 0.0136386 0.389186
0.0466762 0.0136416 0.389264
0.0487119 0.0137069 0.391119
0.0502227 0.0136251 0.388775
0.051674 0.0135334 0.386144
0.053574 0.0135615 0.386925
0.0552034 0.0135214 0.385761
0.0568895 0.0134973 0.385047
0.0584077 0.0134361 0.383269
0.0602788 0.0134572 0.383837
0.0621563 0.0134785 0.384405
0.0638946 0.0134693 0.384097
0.0655254 0.0134385 0.383169
0.0672222 0.0134226 0.382658
0.0688457 0.0133932 0.381757
0.0704341 0.0133586 0.380702
0.0721911 0.0133569 0.380577
0.0739662 0.0133586 0.380541
0.0756691 0.0133474 0.380133
0.0775539 0.0133681 0.380623
0.0792606 0.0133579 0.380224
0.0802706 0.0132333 0.376562
0.0821582 0.0132556 0.377071
0.0838645 0.0132482 0.37673
0.0855169 0.0132329 0.37615
0.0872606 0.013232 0.375972
0.0888992 0.0132156 0.37534
0.0905938 0.0132079 0.374948
0.0922069 0.0131888 0.374222
0.0936872 0.0131519 0.372976
0.0957269 0.0131933 0.373943
0.0974743 0.0131938 0.373733
0.0989566 0.0131589 0.372513
0.10022 0.0130966 0.370504
0.101867 0.0130858 0.369937
0.103216 0.0130377 0.368305
0.10557 0.0131159 0.370227
0.106964 0.0130744 0.368752
0.108574 0.0130602 0.368035
0.110498 0.0130835 0.368358
0.111938 0.0130497 0.367059
0.11386 0.0130723 0.36733
0.115886 0.013106 0.367893
0.116838 0.013019 0.365053
0.118625 0.0130262 0.364842
0.120712 0.0130657 0.365514
0.122944 0.0131196 0.366567
0.122187 0.0128573 0.358777
0.124566 0.0129278 0.360261
0.12707 0.0130092 0.362024
0.128864 0.0130167 0.361706
0.13005 0.0129634 0.359685
0.131191 0.012907 0.35756
0.133552 0.0129706 0.358741
0.135191 0.0129633 0.357941
0.136581 0.0129326 0.356476
0.13887 0.0129868 0.357331
0.14111 0.0130352 0.358002
0.143083 0.0130579 0.357946
0.14401 0.0129858 0.355276
0.145684 0.012982 0.354461
0.14711 0.0129564 0.353038
0.149355 0.0130027 0.353556
0.151038 0.0129996 0.352714
0.152509 0.0129786 0.351373
0.15477 0.0130244 0.35183
0.156351 0.0130127 0.350722
0.158164 0.0130203 0.350128
0.15969 0.0130044 0.348896
0.161344 0.0129992 0.347951
0.164258 0.0130945 0.349692
0.166008 0.0130959 0.348926
0.167654 0.0130893 0.347952
0.169181 0.0130736 0.346752
0.17114 0.0130912 0.346452
0.172598 0.0130705 0.34516
0.174793 0.0131055 0.345363
0.17705 0.0131445 0.345697
0.17912 0.0131689 0.34568
0.180864 0.0131691 0.345068
0.182501 0.0131616 0.344297
0.184265 0.0131633 0.343816
0.184498 0.0130566 0.340562
0.186334 0.0130643 0.340353
0.188575 0.0131 0.340927
0.190349 0.0131029 0.340711
0.191469 0.0130611 0.339399
0.192868 0.013039 0.338661
0.19508 0.0130717 0.339414
0.19583 0.0130067 0.337698
0.19806 0.0130403 0.338607
0.199952 0.0130512 0.338994
0.201627 0.013048 0.339078
0.203418 0.0130522 0.339418
0.204576 0.0130161 0.338772
0.204603 0.0129093 0.33634
-0.240489 0.0199717 0.462766
-0.236574 0.019839 0.46055
-0.232702 0.0197073 0.458395
-0.229618 0.0196403 0.457778
-0.228204 0.0197164 0.460532
-0.223421 0.0194999 0.456476
-0.220293 0.0194247 0.455738
-0.21802 0.0194244 0.456767
-0.214263 0.0192904 0.454659
-0.211858 0.0192765 0.455382
-0.208239 0.0191507 0.453456
-0.205821 0.0191338 0.454101
-0.202236 0.0190068 0.45212
-0.199637 0.0189708 0.452284
-0.197026 0.0189328 0.452387
-0.193286 0.0187841 0.449822
-0.19095 0.0187701 0.450458
-0.188134 0.018708 0.44992
-0.184575 0.0185697 0.447518
-0.182489 0.0185781 0.448625
-0.179751 0.0185195 0.44809
-0.175764 0.0183293 0.444335
-0.173342 0.0182996 0.444441
-0.171591 0.0183408 0.446246
-0.168259 0.0182119 0.443885
-0.165594 0.0181529 0.443195
-0.163531 0.0181592 0.444074
-0.161925 0.0182171 0.446194
-0.15837 0.0180544 0.442881
-0.156452 0.0180763 0.444069
-0.15404 0.018041 0.443829
-0.15148 0.0179872 0.443106
-0.149032 0.0179453 0.442653
-0.146449 0.0178859 0.44174
-0.143965 0.0178368 0.441058
-0.142008 0.0178526 0.441958
-0.140054 0.0178693 0.442859
-0.137767 0.0178433 0.442682
-0.134992 0.0177525 0.440871
-0.131827 0.0176066 0.437671
-0.129695 0.0175962 0.437814
-0.127765 0.0176135 0.438628
-0.125252 0.0175496 0.437401
-0.122241 0.0174126 0.434329
-0.12029 0.0174245 0.434954
-0.118549 0.0174677 0.436344
-0.116478 0.0174631 0.436524
-0.114087 0.0174094 0.43546
-0.111537 0.0173291 0.433712
-0.109338 0.0173013 0.433265
-0.107885 0.0173927 0.435788
-0.104856 0.0172288 0.431899
-0.102733 0.0172102 0.431638
-0.100914 0.0172427 0.432646
-0.0989678 0.0172544 0.433122
-0.0966264 0.0171963 0.431831
-0.0943779 0.0171526 0.430891
-0.0920795 0.0170978 0.429658
-0.0898018 0.0170444 0.428451
-0.0874484 0.0169739 0.426804
-0.0850452 0.0168903 0.424815
-0.083004 0.0168762 0.424567
-0.080972 0.0168635 0.424342
-0.0796492 0.0170015 0.427903
-0.0770624 0.0168698 0.424669
-0.0750423 0.0168585 0.424458
-0.0729475 0.0168294 0.42379
-0.0708728 0.0168034 0.423195
-0.0686258 0.016734 0.421498
-0.0664022 0.0166663 0.41984
-0.0644767 0.0166717 0.420015
-0.062653 0.0167044 0.420877
-0.0603232 0.0166001 0.418278
-0.0583779 0.0165982 0.418255
-0.0564069 0.0165885 0.418034
-0.0543397 0.0165489 0.417052
-0.0524442 0.0165605 0.41736
-0.0504863 0.0165526 0.417172
-0.0485395 0.0165479 0.41706
-0.0462699 0.0164281 0.414048
-0.0444067 0.0164485 0.414565
-0.0424898 0.0164501 0.414603
-0.0405747 0.0164524 0.414661
-0.0387081 0.0164756 0.415243
-0.0366032 0.0163945 0.413195
-0.0347251 0.0164117 0.413622
-0.0326222 0.0163184 0.411265
-0.0308714 0.0164006 0.413329
-0.028831 0.0163296 0.411533
-0.0267978 0.016253 0.409594
-0.024799 0.0161872 0.407926
-0.0228583 0.0161515 0.407018
-0.0210378 0.0162019 0.408281
