ply
format ascii 1.0
comment Generated by sampleExportPLY
element vertex 1722
property float x
property float y
property float z
element face 0
property list uchar int vertex_index
end_header
-0.458504 -0.230942 0.881726
0 0 0
0 0 0
-0.408897 -0.212189 0.810582
-0.403433 -0.211487 0.808302
-0.398292 -0.210942 0.806737
-0.390829 -0.209143 0.800486
-0.385612 -0.208521 0.798844
-0.381077 -0.208258 0.798681
-0.375337 -0.207324 0.796039
-0.370603 -0.206931 0.795562
-0.365477 -0.206308 0.794284
-0.360329 -0.205659 0.792976
-0.356756 -0.205905 0.795187
-0.351672 -0.205274 0.794074
-0.346952 -0.204844 0.793786
-0.343205 -0.204984 0.795757
-0.339049 -0.204881 0.796823
-0.333629 -0.204002 0.794899
-0.327788 -0.202842 0.79189
-0.323741 -0.202777 0.793166
-0.318984 -0.202261 0.792685
-0.312217 -0.200441 0.787085
-0.303703 -0.197439 0.776813
-0.298295 -0.196406 0.774247
-0.290474 -0.193736 0.765197
-0.287585 -0.194329 0.769009
-0.281401 -0.192682 0.763929
-0.275256 -0.191017 0.758741
-0.269387 -0.189501 0.754099
-0.265024 -0.189016 0.753527
-0.260551 -0.18844 0.752556
-0.253285 -0.185797 0.743287
-0.249368 -0.18557 0.743636
-0.244671 -0.184747 0.741563
-0.241859 -0.185345 0.74516
-0.239083 -0.185989 0.748923
-0.238123 -0.188087 0.758528
-0.235615 -0.189008 0.763376
-0.232922 -0.189808 0.767712
-0.230278 -0.190675 0.772298
-0.228145 -0.191999 0.778717
-0.226909 -0.194135 0.788415
-0.223468 -0.194425 0.7906
-0.220264 -0.194935 0.793651
-0.216709 -0.195146 0.795457
-0.213668 -0.195836 0.799186
-0.209382 -0.195389 0.79825
-0.203364 -0.19328 0.790481
-0.199611 -0.193284 0.791315
-0.196728 -0.194148 0.795644
-0.192332 -0.193522 0.79384
-0.188151 -0.193093 0.792811
-0.185034 -0.19376 0.796256
-0.179609 -0.191987 0.789645
-0.175138 -0.191182 0.786977
-0.170672 -0.190346 0.784156
-0.166824 -0.190178 0.784058
-0.16294 -0.189961 0.783732
-0.158432 -0.188989 0.780264
-0.152534 -0.186273 0.769566
-0.149694 -0.18725 0.774096
-0.145343 -0.186339 0.770802
-0.138677 -0.182338 0.754691
-0.133812 -0.180557 0.747738
-0.13057 -0.180928 0.749679
-0.127889 -0.18212 0.755
-0.120966 -0.177166 0.73482
-0.119201 -0.179698 0.745668
-0.115398 -0.179217 0.744004
-0.109691 -0.175658 0.729535
-0.105768 -0.174818 0.72634
-0.102096 -0.174351 0.724676
-0.0986314 -0.174219 0.724389
-0.0973339 -0.178042 0.740536
-0.0939859 -0.178257 0.741672
-0.0902495 -0.177723 0.739682
-0.0859052 -0.175903 0.732318
-0.0821223 -0.175129 0.729295
-0.0791836 -0.176165 0.733804
-0.0758904 -0.176472 0.735261
-0.0723928 -0.176309 0.734753
-0.0686417 -0.175483 0.731466
-0.0649968 -0.174855 0.728998
-0.0616366 -0.174966 0.729602
-0.0574909 -0.172731 0.720407
-0.0538202 -0.171734 0.716366
-0.0502297 -0.170877 0.712903
-0.0470782 -0.171499 0.715597
-0.0437052 -0.171347 0.715056
-0.0403115 -0.171081 0.714034
-0.0367306 -0.169903 0.709193
-0.0332577 -0.16904 0.705661
-0.0299686 -0.169025 0.705662
-0.0266322 -0.168706 0.704386
-0.0233722 -0.168851 0.705036
-0.02013 -0.16919 0.706498
-0.0168384 -0.169168 0.706441
-0.0134993 -0.168541 0.703849
-0.0101815 -0.167864 0.701046
-0.00692554 -0.168047 0.701826
-0.00366889 -0.168526 0.703838
-0.000392516 -0.168543 0.703911
0.00287825 -0.168194 0.702454
0.00616434 -0.168636 0.704288
0.00936257 -0.167202 0.698284
0.012633 -0.167464 0.699357
0.0158617 -0.167178 0.698138
0.0190889 -0.166978 0.697267
0.0221554 -0.165633 0.691612
0.0254016 -0.165803 0.692275
0.0285778 -0.165529 0.69108
0.0317513 -0.165297 0.690049
0.034615 -0.163642 0.683078
0.0377462 -0.163425 0.682098
0.0408406 -0.163094 0.680637
0.043752 -0.162133 0.676539
0.0463964 -0.160378 0.669123
0.0494781 -0.160261 0.668533
0.0530224 -0.161567 0.673871
0.0559904 -0.161068 0.671677
0.0591662 -0.161189 0.672055
0.0620089 -0.160436 0.668782
0.0652649 -0.160773 0.670044
0.0684212 -0.160845 0.670192
0.0710521 -0.15973 0.665384
0.0729418 -0.157111 0.654307
0.0759023 -0.156917 0.653321
0.0788804 -0.156773 0.652532
0.0814229 -0.155806 0.648309
0.0858237 -0.158336 0.658627
0.08908 -0.158653 0.659722
0.092086 -0.158518 0.658925
0.0941907 -0.156891 0.651914
0 0 0
0.100918 -0.157872 0.655458
0 0 0
0.108442 -0.159914 0.663343
0.11086 -0.158923 0.658914
0 0 0
0 0 0
0 0 0
0 0 0
0 0 0
0 0 0
0 0 0
0 0 0
0 0 0
0 0 0
0 0 0
0 0 0
0 0 0
0 0 0
0 0 0
0 0 0
0 0 0
0 0 0
0 0 0
0 0 0
0 0 0
0 0 0
0.156156 -0.136414 0.554873
0.15838 -0.136046 0.552678
0.161456 -0.13641 0.553436
0.163972 -0.136297 0.552233
0.165909 -0.135714 0.549108
0.167745 -0.135068 0.545712
0.170569 -0.135225 0.54554
0.172847 -0.134951 0.543611
0.175045 -0.134623 0.541445
0.177336 -0.134376 0.539586
0.179836 -0.134292 0.538364
0.182885 -0.134615 0.538751
0.185406 -0.134545 0.537547
0.187312 -0.134037 0.534577
0.189988 -0.134087 0.533817
0.19307 -0.134418 0.534157
0.196984 -0.135311 0.536711
0.198515 -0.134565 0.53275
0.201059 -0.134517 0.531546
0.203629 -0.134487 0.530405
0.206392 -0.134584 0.52976
0.209338 -0.134796 0.529562
0.21236 -0.135052 0.529532
0.214164 -0.134536 0.526483
0.219494 -0.13622 0.532043
0.220248 -0.135059 0.526498
0.222326 -0.134727 0.524214
0.225352 -0.13497 0.524189
0.228365 -0.135201 0.524137
0.231077 -0.13525 0.523409
0.234639 -0.135789 0.524611
0.237326 -0.135816 0.523872
0.239032 -0.135287 0.521037
0.241656 -0.135284 0.520279
0.243946 -0.135095 0.518866
0.24605 -0.134809 0.517141
0.248419 -0.134673 0.516056
0.250888 -0.134592 0.515254
0.254013 -0.134862 0.515864
0.256997 -0.135053 0.516242
0.258641 -0.134542 0.514016
0.26097 -0.134394 0.513257
0.263217 -0.134208 0.51243
0.265136 -0.133859 0.511064
0.267322 -0.133651 0.510315
0.268859 -0.133126 0.508433
0.271445 -0.133125 0.508632
0.274634 -0.133416 0.510029
0.276239 -0.13294 0.508568
0.277249 -0.13219 0.506127
0.279269 -0.13193 0.505636
0.279961 -0.131053 0.502846
0.282551 -0.131073 0.503562
0.283318 -0.130254 0.501118
0.285094 -0.129909 0.500558
0.287733 -0.12996 0.501582
0.287261 -0.128618 0.497277
0.286373 -0.127114 0.492386
0.293763 -0.129278 0.501763
0.296059 -0.129183 0.502441
0.294899 -0.127595 0.497346
0 0 0
-0.464262 -0.227072 0.88418
-0.453507 -0.223984 0.872112
-0.445876 -0.222393 0.866013
0 0 0
-0.41496 -0.211149 0.822796
-0.404097 -0.207717 0.809888
-0.399846 -0.207648 0.810206
-0.39231 -0.205854 0.803902
-0.385969 -0.204656 0.800024
-0.381764 -0.204577 0.800622
-0.37546 -0.20336 0.796856
-0.370895 -0.203068 0.7968
-0.366508 -0.202868 0.797188
-0.360467 -0.201738 0.793987
-0.356384 -0.201691 0.795111
-0.35193 -0.201431 0.795451
-0.346979 -0.200876 0.794677
-0.34172 -0.200129 0.793177
-0.33553 -0.198813 0.78944
-0.329726 -0.197696 0.78651
-0.325622 -0.197584 0.787589
-0.319976 -0.196522 0.78489
0 0 0
-0.306833 -0.193154 0.774475
-0.300383 -0.191484 0.769285
-0.29259 -0.188904 0.760402
-0.286563 -0.187412 0.755854
-0.281618 -0.186598 0.754011
-0.276665 -0.185756 0.752029
-0.270113 -0.183803 0.745508
-0.266613 -0.183903 0.747279
-0.262644 -0.183677 0.7477
-0.258485 -0.183311 0.747522
-0.25331 -0.182202 0.744279
-0.249305 -0.181916 0.74436
-0.245074 -0.181454 0.743687
-0.241846 -0.181732 0.746017
-0.239322 -0.182555 0.750561
-0.236574 -0.18323 0.754476
-0.235394 -0.18516 0.763542
-0.233155 -0.186304 0.769357
-0.230328 -0.187008 0.773332
-0.227647 -0.187855 0.777878
-0.22594 -0.189547 0.785904
-0.222751 -0.190033 0.788907
-0.219909 -0.190837 0.793206
-0.215576 -0.190351 0.792116
-0.211 -0.189631 0.790013
-0.205431 -0.187976 0.783972
-0.202187 -0.188425 0.786676
-0.199113 -0.189054 0.790102
-0.195018 -0.188718 0.789471
-0.191087 -0.188532 0.789436
-0.185989 -0.187164 0.784417
-0.181922 -0.186798 0.783566
-0.178155 -0.186732 0.783944
-0.174193 -0.186453 0.783406
-0.169876 -0.185775 0.781159
-0.165335 -0.184816 0.777702
-0.160506 -0.183485 0.772651
-0.156333 -0.182859 0.770537
-0.151518 -0.181435 0.765034
-0.147581 -0.181018 0.763756
-0.143179 -0.179996 0.759897
-0.138329 -0.178345 0.753354
-0.133511 -0.176649 0.746598
-0.129182 -0.175526 0.742237
-0.124747 -0.174191 0.736961
-0.120947 -0.173695 0.735209
-0.117198 -0.173243 0.733628
-0.113879 -0.17342 0.734691
-0.109153 -0.171398 0.726421
-0.105482 -0.170956 0.72483
-0.101756 -0.170393 0.722714
-0.0987437 -0.171027 0.725655
-0.0961062 -0.172378 0.731631
-0.0926099 -0.172232 0.731241
-0.088943 -0.171745 0.729393
-0.0853107 -0.171289 0.727661
-0.0809915 -0.169359 0.719654
-0.0786228 -0.171517 0.729006
-0.0752371 -0.171551 0.729323
-0.0716009 -0.17099 0.7271
-0.0682075 -0.170982 0.727218
-0.0643683 -0.169798 0.72232
-0.0604341 -0.168218 0.71573
-0.0570709 -0.168136 0.715502
-0.0535176 -0.167448 0.712689
-0.0501703 -0.167357 0.712405
-0.0467364 -0.166944 0.710743
-0.043316 -0.166519 0.709025
-0.039918 -0.166118 0.707397
-0.036423 -0.165205 0.703582
-0.0331749 -0.165341 0.704229
-0.0299418 -0.165591 0.705353
-0.026494 -0.164568 0.70105
-0.0232766 -0.16489 0.702468
-0.0199236 -0.164201 0.69957
-0.0166645 -0.164166 0.699458
-0.0134201 -0.164294 0.70003
-0.0101753 -0.164499 0.700925
-0.00691191 -0.164455 0.700754
-0.00363973 -0.163936 0.698552
-0.000386839 -0.162876 0.694036
0.00283778 -0.162605 0.692881
0.00607608 -0.16299 0.694511
0.00931589 -0.163133 0.695109
0.0125492 -0.163118 0.695024
0.0157845 -0.163131 0.695051
0.0187939 -0.161201 0.686798
0.0220587 -0.161704 0.688905
0.0252212 -0.161425 0.687671
0.0283325 -0.160918 0.685461
0.0312873 -0.159715 0.680279
0.0343654 -0.159304 0.678467
0.0373834 -0.158708 0.675858
0.040547 -0.158774 0.676064
0.0433107 -0.157377 0.670036
0.046407 -0.157296 0.6696
0.0491782 -0.156192 0.664805
0.0520298 -0.155459 0.661584
0.0549557 -0.155018 0.659597
0.0581037 -0.155217 0.660325
0.0611995 -0.155264 0.660395
0.0641832 -0.155035 0.659286
0 0 0
0 0 0
0.0713286 -0.15065 0.640191
0.0747769 -0.151585 0.643997
0 0 0
0 0 0
0 0 0
0 0 0
0 0 0
0 0 0
0 0 0
0 0 0
0 0 0
0 0 0
0 0 0
0 0 0
0 0 0
0 0 0
0 0 0
0 0 0
0.112274 -0.135211 0.570216
0.113622 -0.133644 0.563243
0.116186 -0.133545 0.562447
0.118815 -0.133524 0.561964
0.121086 -0.13311 0.559811
0.122918 -0.132242 0.555734
0.124996 -0.131668 0.552883
0.127602 -0.131664 0.552409
0.130303 -0.131756 0.552315
0.132536 -0.13138 0.550244
0.13419 -0.130455 0.545862
0.136407 -0.130102 0.543859
0.140202 -0.13124 0.548063
0.142698 -0.131143 0.547087
0.145166 -0.131024 0.545996
0.147846 -0.131097 0.545687
0.150344 -0.131009 0.544687
0.152863 -0.130941 0.543751
0.155426 -0.130913 0.542958
0.157939 -0.130845 0.541977
0.160513 -0.130828 0.541189
0.16352 -0.131159 0.541814
0.165941 -0.131018 0.540464
0.168792 -0.131215 0.540488
0.171595 -0.131369 0.540311
0.174462 -0.131567 0.540289
0.176291 -0.130987 0.537056
0.179321 -0.131305 0.537482
0.181586 -0.13106 0.535586
0.18422 -0.131085 0.534774
0.187086 -0.131273 0.534602
0.189772 -0.13133 0.533882
0.192437 -0.131372 0.533082
0.195432 -0.131635 0.53316
0.198094 -0.13167 0.532298
0.200671 -0.131648 0.531195
0.203371 -0.131706 0.530405
0.206077 -0.131766 0.529617
0.209028 -0.13198 0.529439
0.211427 -0.131844 0.527857
0.213454 -0.131482 0.525374
0.215727 -0.13128 0.523538
0.219432 -0.131942 0.525158
0.22246 -0.132187 0.525125
0.225347 -0.132343 0.524752
0.227077 -0.131824 0.521731
0.23072 -0.132415 0.523129
0.233995 -0.132784 0.523675
0.236829 -0.132897 0.523249
0.23885 -0.132556 0.521081
0.241177 -0.13239 0.519653
0.243685 -0.132327 0.518682
0.246228 -0.132284 0.517849
0.248511 -0.132103 0.51654
0.251086 -0.13208 0.515917
0.253818 -0.132139 0.515683
0.256655 -0.132251 0.515727
0.258912 -0.132065 0.514687
0.26096 -0.131776 0.513329
0.263418 -0.131699 0.51287
0.266284 -0.131825 0.513285
0.268461 -0.131611 0.512457
0.269927 -0.131056 0.51038
0.272427 -0.131008 0.510362
0.275462 -0.131217 0.511421
0.277953 -0.131165 0.511543
0.278674 -0.130286 0.508514
0.280623 -0.129992 0.507841
0.285098 -0.130863 0.511794
0.285906 -0.13005 0.509234
0.28497 -0.128466 0.50371
0.285277 -0.127465 0.500525
0.28666 -0.126958 0.499334
0.285425 -0.125311 0.493705
0.287364 -0.125074 0.493674
0.290742 -0.125461 0.496167
0.291919 -0.124901 0.494964
0.292274 -0.124001 0.492453
0 0 0
-0.462205 -0.221584 0.880224
-0.447077 -0.21643 0.859777
-0.440286 -0.215251 0.855252
-0.428022 -0.211345 0.840025
-0.421993 -0.21047 0.836968
-0.405482 -0.204297 0.81295
-0.399736 -0.203475 0.810331
-0.393227 -0.202244 0.806188
-0.387733 -0.201515 0.804146
-0.381297 -0.200276 0.800165
-0.375694 -0.199452 0.797927
-0.371229 -0.199221 0.798145
-0.366319 -0.198743 0.797453
-0.360104 -0.197539 0.793906
-0.355629 -0.197274 0.794188
-0.351292 -0.197079 0.794808
-0.344814 -0.195665 0.790549
-0.338899 -0.194542 0.787486
-0.332161 -0.192914 0.78239
-0.326682 -0.191987 0.780147
-0.31622 -0.188075 0.76575
-0.312603 -0.188188 0.767725
-0.30525 -0.186026 0.760411
-0.301071 -0.18577 0.760867
-0.295653 -0.184732 0.75811
-0.2909 -0.184089 0.756949
-0.284922 -0.182644 0.752462
-0.281517 -0.182832 0.754681
-0.27746 -0.182596 0.755128
-0.271667 -0.181196 0.750729
-0.266404 -0.180116 0.747616
-0.262606 -0.180009 0.74851
-0.25846 -0.179659 0.74836
-0.25357 -0.178773 0.745944
-0.249377 -0.178361 0.745466
-0.245434 -0.178118 0.74566
-0.241916 -0.17818 0.747103
-0.239393 -0.178988 0.751648
-0.236977 -0.179903 0.75662
-0.234441 -0.180753 0.761302
-0.233036 -0.182517 0.769815
-0.230033 -0.183066 0.773183
-0.226831 -0.183471 0.775919
-0.224104 -0.18428 0.780339
-0.221354 -0.185097 0.784771
-0.216523 -0.184173 0.781787
-0.213135 -0.184465 0.783931
-0.207037 -0.18238 0.775935
-0.203413 -0.182439 0.777019
-0.200623 -0.183261 0.781332
-0.194964 -0.181444 0.774356
-0.190848 -0.181022 0.773297
-0.187465 -0.181291 0.775164
-0.18406 -0.18155 0.776962
-0.179731 -0.180889 0.774796
-0.174068 -0.17883 0.766602
-0.1703 -0.178672 0.76653
-0.165976 -0.177911 0.763843
-0.161973 -0.177469 0.762495
-0.158702 -0.177825 0.764558
-0.153885 -0.176428 0.759054
-0.149427 -0.175383 0.755042
-0.146623 -0.176278 0.759354
-0.142345 -0.1754 0.756013
-0.138007 -0.174401 0.752127
-0.132849 -0.172287 0.743403
-0.128567 -0.171226 0.739202
-0.124695 -0.170667 0.737145
-0.120805 -0.170051 0.734821
-0.116615 -0.168964 0.730444
-0.112572 -0.16803 0.726712
-0.109076 -0.167881 0.726353
-0.105199 -0.167116 0.723319
-0.101537 -0.166654 0.721576
-0.098346 -0.166961 0.723148
-0.0954915 -0.16788 0.727363
-0.0919654 -0.167642 0.726556
-0.0886967 -0.167874 0.727769
-0.0847285 -0.166748 0.723082
-0.0808507 -0.165713 0.718779
-0.0760791 -0.162677 0.705784
-0.0742629 -0.165973 0.720245
-0.0707485 -0.165605 0.718803
-0.0676072 -0.166117 0.721172
-0.0637003 -0.164704 0.71517
-0.060143 -0.164088 0.712622
-0.0566029 -0.163451 0.709968
-0.053164 -0.163044 0.708309
-0.0497116 -0.162539 0.706215
-0.0466137 -0.163204 0.709197
-0.0431544 -0.162609 0.706695
-0.0396767 -0.16184 0.703431
-0.0363311 -0.16152 0.702111
-0.0330006 -0.161211 0.700832
-0.0294824 -0.159817 0.694828
-0.0261722 -0.159346 0.692827
-0.0229673 -0.159473 0.693426
-0.0197763 -0.159755 0.694687
-0.0165195 -0.159511 0.693659
-0.0132654 -0.159181 0.69225
-0.0100118 -0.158648 0.689952
-0.00681098 -0.158841 0.690807
-0.00359851 -0.158866 0.690926
-0.000384477 -0.158671 0.690082
0.00282926 -0.158903 0.691085
0.00603134 -0.158582 0.689681
0.00917869 -0.157544 0.685156
0.0123524 -0.157378 0.684413
0.0154373 -0.156379 0.680045
0.0185871 -0.156266 0.679524
0.021748 -0.156265 0.679486
0.0249583 -0.156575 0.680792
0.0280157 -0.155964 0.678085
0.0309229 -0.154725 0.672646
0.0341519 -0.155175 0.674546
0.0373027 -0.155225 0.674695
0.0400908 -0.153875 0.668755
0.042954 -0.152986 0.664816
0.0455932 -0.151473 0.658158
0.0486727 -0.151522 0.658276
0.0516119 -0.151153 0.656578
0.0545011 -0.150688 0.654451
0.0575874 -0.150788 0.654772
0.0605172 -0.150489 0.653352
0.0634452 -0.150214 0.65203
0 0 0
0.0633976 -0.13698 0.59433
0.0655072 -0.135611 0.58825
0.0674592 -0.134039 0.581284
0.0696564 -0.133057 0.57687
0.0721482 -0.13269 0.575114
0.0746512 -0.132369 0.573551
0.0763673 -0.130723 0.56624
0.0790257 -0.130747 0.566151
0.0817072 -0.130805 0.566205
0.0839332 -0.130154 0.563177
0.0864214 -0.129937 0.562016
0.0888517 -0.129648 0.560535
0.0912405 -0.129317 0.55886
0.0937233 -0.129133 0.557814
0.0965783 -0.129459 0.558953
0.0991817 -0.129439 0.558587
0.101712 -0.129327 0.557811
0.104209 -0.129179 0.556868
0.106598 -0.128909 0.555382
0.109169 -0.128865 0.554859
0.11202 -0.129147 0.555724
0.114457 -0.12895 0.554509
0.116799 -0.128656 0.552867
0.119489 -0.12875 0.552874
0.122481 -0.129159 0.554211
0.124695 -0.128748 0.552019
0.127249 -0.128697 0.551352
0.129912 -0.128756 0.551137
0.132438 -0.128679 0.550325
0.135136 -0.12877 0.55021
0.137366 -0.12842 0.548191
0.140015 -0.128466 0.547847
0.14266 -0.128509 0.547465
0.145278 -0.128525 0.54695
0.147747 -0.128412 0.545866
0.150348 -0.128415 0.545254
0.152873 -0.128353 0.544348
0.155418 -0.128311 0.543499
0.157826 -0.128159 0.542167
0.160658 -0.12835 0.542266
0.163457 -0.128509 0.542202
0.166057 -0.12851 0.541445
0.168632 -0.128491 0.540589
0.171385 -0.128607 0.540272
0.173879 -0.128527 0.539111
0.176632 -0.128639 0.538731
0.178841 -0.128357 0.536681
0.18146 -0.128373 0.535859
0.184443 -0.128642 0.536072
0.187064 -0.128655 0.535196
0.189774 -0.128728 0.534548
0.192431 -0.128764 0.533727
0.195079 -0.128792 0.532858
0.198029 -0.129016 0.532786
0.200435 -0.128886 0.531232
0.203027 -0.128876 0.530167
0.205921 -0.129056 0.529871
0.208887 -0.129276 0.529734
0.211399 -0.129213 0.528429
0.213517 -0.128914 0.526162
0.216466 -0.129117 0.525951
0.217889 -0.128416 0.522069
0.221912 -0.129247 0.524422
0.225118 -0.129588 0.524796
0.227149 -0.129252 0.52245
0.23024 -0.129519 0.522571
0.234179 -0.130253 0.524595
0.237011 -0.130362 0.524131
0.23946 -0.130259 0.522862
0.240636 -0.129475 0.518905
0.244009 -0.129876 0.519756
0.246865 -0.129996 0.519535
0.2496 -0.130051 0.519115
0.251989 -0.129927 0.518043
0.255053 -0.130149 0.518424
0.258145 -0.130381 0.518914
0.260344 -0.130162 0.517685
0.261784 -0.129571 0.515057
0.267455 -0.131066 0.520799
0.269434 -0.13074 0.519385
0.270325 -0.129897 0.516003
0.272528 -0.129695 0.515247
0.27443 -0.129355 0.514026
0.278567 -0.130065 0.517057
0.281682 -0.130289 0.51824
0.283179 -0.129767 0.516538
0.285431 -0.129598 0.516311
0.287012 -0.12913 0.514969
0.287845 -0.128337 0.512399
0.289531 -0.127935 0.511455
0.288965 -0.126553 0.506655
0.287939 -0.124997 0.501202
0.287796 -0.123847 0.497425
0.290083 -0.123754 0.497943
0.288241 -0.121916 0.491484
0.286587 -0.120188 0.485494
0.288903 -0.12014 0.486327
0 0 0
-0.450651 -0.211675 0.858215
-0.441714 -0.209509 0.849524
-0.434039 -0.207904 0.843243
-0.414812 -0.200679 0.814285
0 0 0
-0.402692 -0.198786 0.807664
-0.398793 -0.198889 0.80879
-0.392542 -0.197808 0.805213
-0.385834 -0.196472 0.800693
-0.380719 -0.195927 0.799491
-0.376091 -0.195624 0.799364
-0.370052 -0.194572 0.796255
-0.362702 -0.1928 0.79026
-0.358128 -0.192481 0.790274
-0.353014 -0.191862 0.789109
-0.341789 -0.187869 0.77409
-0.335646 -0.18661 0.770339
-0.330899 -0.186107 0.769732
-0.325129 -0.18501 0.766685
-0.319596 -0.184024 0.7641
-0.31439 -0.183204 0.762206
-0.309708 -0.182673 0.761516
-0.305003 -0.182116 0.760707
-0.300307 -0.18155 0.759853
-0.29556 -0.180938 0.758792
-0.291143 -0.180516 0.758505
-0.286413 -0.179886 0.757325
-0.280942 -0.178768 0.75406
-0.277056 -0.178642 0.754947
-0.272061 -0.177788 0.75273
-0.267611 -0.177272 0.751907
-0.262766 -0.176476 0.749863
-0.258467 -0.17603 0.749267
-0.253695 -0.175243 0.747188
-0.249486 -0.174829 0.746657
-0.2455 -0.174562 0.746718
-0.241223 -0.174076 0.745809
-0.238621 -0.174802 0.750063
-0.236611 -0.175992 0.756285
-0.233856 -0.176655 0.760228
-0.231716 -0.177812 0.766273
-0.229744 -0.179137 0.773024
-0.22633 -0.179362 0.775007
-0.222418 -0.179194 0.775257
-0.219243 -0.179624 0.778067
-0.215008 -0.179185 0.777081
-0.208858 -0.177107 0.768941
-0.205493 -0.177359 0.770881
-0.202122 -0.177614 0.772804
-0.19818 -0.177368 0.772522
-0.193444 -0.176388 0.769009
-0.189283 -0.175906 0.767629
-0.18494 -0.175232 0.765382
-0.180095 -0.174046 0.760866
-0.175868 -0.173421 0.758767
-0.171607 -0.172736 0.75638
-0.168269 -0.17297 0.757989
-0.163907 -0.17214 0.754909
-0.158986 -0.170673 0.749005
-0.155399 -0.170603 0.749207
-0.151097 -0.169726 0.745843
-0.147564 -0.169693 0.746159
-0.144057 -0.169689 0.746586
-0.140357 -0.169452 0.745966
-0.137506 -0.170253 0.749901
-0.131884 -0.167576 0.738491
-0.12771 -0.166644 0.734745
-0.124139 -0.166469 0.734318
-0.120379 -0.166024 0.732684
-0.116203 -0.16496 0.7283
-0.112616 -0.164695 0.727424
-0.108811 -0.164086 0.725013
-0.105052 -0.163508 0.722722
-0.101276 -0.162865 0.720128
-0.0980842 -0.163148 0.721617
-0.0948947 -0.163456 0.723204
-0.09186 -0.164063 0.726104
-0.0875979 -0.162441 0.719124
-0.0842054 -0.162366 0.718981
-0.080753 -0.162164 0.718267
-0.0762708 -0.159788 0.707908
-0.0725233 -0.158806 0.70371
-0.0697794 -0.160033 0.709291
-0.0666041 -0.160342 0.710801
-0.0633865 -0.160577 0.711971
-0.0599165 -0.160164 0.710256
-0.0557939 -0.157855 0.700129
-0.0525732 -0.15797 0.700741
-0.0490879 -0.157253 0.697653
-0.0458254 -0.157199 0.697499
-0.0425469 -0.157077 0.697037
-0.0393079 -0.157093 0.697181
-0.0360906 -0.157206 0.697749
-0.0328012 -0.156996 0.69688
-0.0293976 -0.156134 0.693106
-0.0261076 -0.155737 0.691393
-0.0227932 -0.155063 0.688441
-0.0196377 -0.155426 0.69009
-0.0164429 -0.15556 0.690712
-0.0132088 -0.155296 0.689563
-0.00999879 -0.155236 0.689319
-0.00676359 -0.154545 0.686264
-0.00356492 -0.1542 0.684741
-0.000381113 -0.154102 0.684307
0.00279519 -0.153814 0.683027
0.00595199 -0.15333 0.68087
0.00909666 -0.152978 0.679294
0.0122682 -0.153142 0.680006
0.0153705 -0.152552 0.677365
0.0185257 -0.1526 0.677546
0.0216878 -0.152681 0.677872
0.0246736 -0.151658 0.673293
0.0277075 -0.151128 0.670895
0.0308748 -0.151359 0.67187
0.0339352 -0.151072 0.670539
0.0370224 -0.150942 0.669901
0.0398802 -0.14997 0.665519
0.0425775 -0.148578 0.659268
0.0455137 -0.148151 0.657292
0.0483207 -0.147383 0.6538
0.0510086 -0.146365 0.649189
0.0537076 -0.14549 0.645211
0.0566666 -0.145376 0.644595
0.0603548 -0.147049 0.651899
0.0624622 -0.144895 0.642228
0 0 0
0.0626369 -0.132599 0.587483
0.063728 -0.12926 0.572556
0.0660625 -0.128609 0.569536
0.0685132 -0.128226 0.567694
0.0711343 -0.128179 0.567329
0.0735958 -0.127858 0.565743
0.0763238 -0.128006 0.566224
0.0786768 -0.127536 0.563964
0.0812272 -0.127407 0.563198
0.0840627 -0.127718 0.564372
0.086539 -0.127482 0.563113
0.0888989 -0.127093 0.56117
0.0915403 -0.127117 0.561041
0.0940562 -0.126971 0.560147
0.0966112 -0.126883 0.559502
0.0991951 -0.126838 0.559028
0.101843 -0.126875 0.558904
0.10434 -0.126725 0.557946
0.106773 -0.126508 0.556679
0.10953 -0.126677 0.557093
0.111823 -0.126312 0.555148
0.114336 -0.126208 0.554332
0.11717 -0.126454 0.555041
0.119867 -0.126545 0.555052
0.122247 -0.126305 0.553592
0.12474 -0.126189 0.552661
0.127217 -0.126062 0.551665
0.129783 -0.126026 0.55105
0.132338 -0.125981 0.55038
0.134853 -0.125901 0.549537
0.137518 -0.125962 0.549287
0.139888 -0.125754 0.547849
0.142707 -0.125951 0.548154
0.145373 -0.126008 0.547826
0.1479 -0.125944 0.546954
0.150279 -0.125759 0.545534
0.152879 -0.125762 0.54491
0.155535 -0.12581 0.544462
0.158756 -0.126306 0.545923
0.161232 -0.126203 0.544773
0.163533 -0.125968 0.543032
0.166418 -0.126184 0.543211
0.168754 -0.125983 0.541573
0.171404 -0.126019 0.540931
0.175115 -0.126823 0.543558
0.177614 -0.126737 0.542346
0.17929 -0.126076 0.538653
0.181995 -0.126147 0.53807
0.184752 -0.126251 0.537605
0.187263 -0.126187 0.536404
0.190097 -0.126339 0.536102
0.192983 -0.126521 0.535906
0.195888 -0.12671 0.535722
0.198769 -0.126879 0.53543
0.201965 -0.127242 0.535941
0.205101 -0.127559 0.536238
0.207803 -0.127601 0.535368
0.210319 -0.127529 0.534011
0.212688 -0.127372 0.532291
0.21553 -0.127497 0.531753
0.218809 -0.127875 0.532266
0.221406 -0.12785 0.531106
0.224751 -0.128253 0.53173
0.227033 -0.128046 0.52984
0.23004 -0.128249 0.529659
0.232235 -0.127999 0.527637
0.235008 -0.12807 0.526968
0.238201 -0.128366 0.527254
0.240197 -0.128018 0.524932
0.243225 -0.128221 0.524918
0.246712 -0.128658 0.525911
0.251297 -0.129653 0.529228
0.253874 -0.129603 0.528333
0.25622 -0.129436 0.527031
0.257348 -0.128664 0.523338
0.260085 -0.128704 0.523022
0.263666 -0.129156 0.52446
0.268374 -0.130146 0.528152
0.271288 -0.130255 0.52835
0.273021 -0.129801 0.526347
0.274996 -0.129469 0.524924
0.275757 -0.128577 0.521319
0.277937 -0.128358 0.520522
0.280897 -0.1285 0.521274
0.283352 -0.12841 0.521168
0.285619 -0.128238 0.520808
0.287083 -0.127711 0.519086
0.288647 -0.127238 0.517658
0.289198 -0.126332 0.514536
0.289485 -0.125327 0.511075
0.288401 -0.123751 0.505346
0.289256 -0.123028 0.503149
0.290124 -0.122323 0.501083
0.291564 -0.12187 0.5001
0.283781 -0.117602 0.483487
0.287835 -0.11827 0.487194
0 0 0
0.262834 -0.106195 0.439322
-0.434698 -0.199966 0.827859
-0.422488 -0.196252 0.812633
-0.418309 -0.196233 0.812832
-0.412373 -0.19538 0.809706
-0.405126 -0.193883 0.804031
-0.398431 -0.192622 0.799447
-0.395604 -0.193225 0.802713
-0.386076 -0.190533 0.792392
-0.381037 -0.190023 0.791236
-0.373794 -0.188392 0.785495
-0.367744 -0.187333 0.782216
-0.364657 -0.187777 0.78529
-0.356919 -0.185809 0.778339
-0.351403 -0.184968 0.776153
-0.345809 -0.184066 0.773755
-0.34111 -0.183625 0.773336
-0.335463 -0.182658 0.770728
-0.32993 -0.181731 0.768308
-0.324987 -0.181111 0.7672
-0.320526 -0.180749 0.767191
-0.316231 -0.180472 0.767554
-0.310533 -0.179379 0.764438
-0.304589 -0.178114 0.760572
-0.300249 -0.177768 0.760611
-0.295741 -0.177312 0.760166
-0.29105 -0.176733 0.759171
-0.286002 -0.17592 0.757145
-0.280887 -0.175043 0.754813
-0.27669 -0.174723 0.754848
-0.272203 -0.174208 0.754015
-0.267502 -0.173541 0.752484
-0.263063 -0.173028 0.751586
-0.258545 -0.172447 0.750358
-0.254296 -0.172032 0.749813
-0.249809 -0.171442 0.748468
-0.245242 -0.170778 0.746765
-0.241371 -0.170587 0.747087
-0.238791 -0.171316 0.751413
-0.235612 -0.17163 0.753896
-0.232816 -0.172239 0.757645
-0.231207 -0.173759 0.765382
-0.228022 -0.174124 0.768011
-0.224721 -0.17441 0.770266
-0.221173 -0.174512 0.771677
-0.215508 -0.172918 0.765548
-0.210367 -0.171697 0.761026
-0.207394 -0.172234 0.764261
-0.20385 -0.172308 0.765411
-0.199677 -0.171843 0.76414
-0.195263 -0.171149 0.76182
-0.190716 -0.17031 0.758816
-0.185804 -0.169107 0.754154
-0.182724 -0.169557 0.756835
-0.1781 -0.168564 0.753046
-0.174148 -0.16818 0.751944
-0.170332 -0.167913 0.751343
-0.166144 -0.16726 0.748989
-0.162313 -0.166946 0.748124
-0.158588 -0.16673 0.747674
-0.153992 -0.165568 0.742953
-0.150548 -0.165618 0.743651
-0.144671 -0.162932 0.732034
-0.141481 -0.163214 0.733725
-0.138773 -0.164081 0.738031
-0.135393 -0.164176 0.738849
-0.130885 -0.162874 0.733357
-0.127081 -0.1624 0.731576
-0.123463 -0.162145 0.730761
-0.119838 -0.161865 0.729816
-0.11611 -0.161426 0.728137
-0.112262 -0.160789 0.725551
-0.108562 -0.160331 0.723753
-0.104431 -0.159185 0.718836
-0.10092 -0.15894 0.71797
-0.0972603 -0.158437 0.715926
-0.0941369 -0.158803 0.717793
-0.0903896 -0.158104 0.714837
-0.0868635 -0.157753 0.713442
-0.0837995 -0.158247 0.715857
-0.0799392 -0.157216 0.711362
-0.0758523 -0.155631 0.704347
-0.0721625 -0.154754 0.700525
-0.069062 -0.155117 0.70231
-0.0660518 -0.15573 0.705213
-0.0626505 -0.155436 0.704005
-0.0580639 -0.152007 0.688584
-0.0544433 -0.150854 0.683463
-0.0518988 -0.152724 0.692034
-0.0487816 -0.153046 0.69358
-0.045403 -0.152534 0.691344
-0.042018 -0.151921 0.688642
-0.0389939 -0.15262 0.691878
-0.0357854 -0.152658 0.692113
-0.0325845 -0.152739 0.692537
-0.0292162 -0.151967 0.689087
-0.0259474 -0.151586 0.687404
-0.0227398 -0.151506 0.687082
-0.0194995 -0.151146 0.685483
-0.0162572 -0.150628 0.68316
-0.013034 -0.150077 0.680683
-0.00985647 -0.149867 0.679752
-0.00672347 -0.150457 0.682438
-0.00352973 -0.149526 0.678224
-0.000377605 -0.149531 0.678251
0.00278101 -0.149874 0.679804
0.00588466 -0.148465 0.673409
0.00898428 -0.147969 0.671144
0.0121288 -0.148276 0.672524
0.0152201 -0.147941 0.670981
0.0183327 -0.147892 0.670732
0.0212816 -0.146728 0.66542
0.0244135 -0.146961 0.666443
0.0274564 -0.146666 0.665063
0.0303038 -0.145493 0.659693
0.0332102 -0.144792 0.656464
0.0362631 -0.144794 0.656415
0.0392016 -0.144375 0.65445
0.0422935 -0.14454 0.655129
0.0451753 -0.144013 0.652666
0.0476826 -0.142434 0.645427
0.0505637 -0.142092 0.643791
0.0534571 -0.141822 0.64247
0.0563346 -0.14154 0.641091
0.0587111 -0.140091 0.63442
0.0612125 -0.139064 0.629657
0.0627097 -0.135955 0.615457
0.0628097 -0.13022 0.589374
0.064685 -0.128492 0.581425
0.0663363 -0.126476 0.572168
0.068646 -0.125822 0.569069
0.0712239 -0.125691 0.568324
0.073784 -0.125538 0.567476
0.0762795 -0.12529 0.566188
0.0788789 -0.125224 0.56571
0.0815094 -0.12521 0.565458
0.084105 -0.125144 0.564965
0.0865667 -0.12489 0.563608
0.0890396 -0.124666 0.56238
0.0915487 -0.124504 0.56142
0.0941428 -0.124464 0.560997
0.09667 -0.124339 0.560184
0.0992684 -0.124311 0.55979
0.102067 -0.124528 0.560488
0.105068 -0.124975 0.562208
0.108058 -0.125387 0.563753
0.110626 -0.125302 0.563048
0.113456 -0.125511 0.563649
0.116102 -0.125511 0.563294
0.119655 -0.126469 0.567223
0.122968 -0.127138 0.569831
0.124129 -0.125601 0.56254
0.12656 -0.125386 0.561156
0.129875 -0.126038 0.563636
0.131985 -0.125518 0.560854
0.134914 -0.125782 0.561555
0.137822 -0.126016 0.562107
0.139596 -0.125225 0.558062
0.142206 -0.125198 0.557414
0.146077 -0.126263 0.561597
0.147969 -0.12561 0.558116
0.152018 -0.126778 0.562703
0.154261 -0.126426 0.560519
0.156079 -0.125744 0.556853
0.158794 -0.125794 0.556414
0.161542 -0.125869 0.556058
0.164719 -0.126271 0.557119
0.165374 -0.124757 0.549713
0.167013 -0.124021 0.545723
0.170853 -0.124917 0.548893
0.173521 -0.124942 0.548206
0.174917 -0.124064 0.543537
0.176257 -0.123172 0.5388
0.179272 -0.123461 0.539205
0.182371 -0.123798 0.539795
0.18533 -0.124031 0.539908
0.187325 -0.123622 0.537206
0.189981 -0.123655 0.536404
0.192985 -0.12391 0.536544
0.195432 -0.123805 0.535108
0.199118 -0.124478 0.537012
0.202295 -0.124819 0.53746
0.20514 -0.124949 0.536982
0.208786 -0.125558 0.538543
0.211382 -0.125527 0.537348
0.213354 -0.125132 0.534588
0.216126 -0.12521 0.533849
0.219386 -0.125565 0.53429
0.223263 -0.126261 0.536173
0.226861 -0.126784 0.537321
0.229689 -0.126869 0.536621
0.232591 -0.126994 0.536101
0.237113 -0.127989 0.53927
0.23894 -0.127525 0.536309
0.239611 -0.12646 0.53087
0.24109 -0.12584 0.527349
0.243725 -0.125831 0.526434
0.249836 -0.127598 0.532983
0.252919 -0.127796 0.533023
0.256108 -0.128044 0.533326
0.259103 -0.12819 0.533268
0.262147 -0.128357 0.533365
0.264548 -0.12821 0.532227
0.267505 -0.128332 0.532285
0.270431 -0.128436 0.53235
0.272713 -0.128236 0.531233
0.274714 -0.127909 0.529676
0.276593 -0.127532 0.527999
0.278889 -0.127353 0.527225
0.279884 -0.126589 0.524116
0.281832 -0.126266 0.522918
0.284458 -0.12625 0.523076
0.286473 -0.125966 0.522203
0.289363 -0.126068 0.523014
0.290199 -0.125282 0.520216
0.290391 -0.124234 0.516403
0.28969 -0.122826 0.511156
0.282288 -0.118627 0.494336
0.281113 -0.117096 0.488667
0.283926 -0.117239 0.490037
0.286768 -0.11739 0.491509
0.287461 -0.116667 0.489374
0.284156 -0.114348 0.480575
0.276692 -0.110407 0.464964
0.254777 -0.100814 0.425477
-0.421846 -0.189963 0.803434
-0.415191 -0.188797 0.798708
-0.411112 -0.188791 0.799017
-0.403765 -0.187269 0.793034
-0.39894 -0.186898 0.792042
-0.393673 -0.18631 0.790248
-0.387044 -0.185059 0.785745
-0.38369 -0.185364 0.787953
-0.378843 -0.184946 0.78719
-0.373342 -0.184197 0.785105
-0.366779 -0.182902 0.780766
-0.361592 -0.182273 0.779335
-0.356812 -0.181838 0.778793
-0.350757 -0.180735 0.775445
-0.345797 -0.180179 0.774481
-0.341223 -0.179814 0.774374
-0.335758 -0.178965 0.772214
-0.329833 -0.177848 0.768909
-0.325401 -0.177519 0.769023
-0.32078 -0.177079 0.76866
-0.31636 -0.17674 0.768743
-0.312109 -0.176488 0.769202
-0.306037 -0.175188 0.765077
-0.300821 -0.174352 0.762951
-0.29572 -0.173561 0.761001
-0.291377 -0.173201 0.760916
-0.286073 -0.172254 0.758219
-0.280959 -0.171397 0.755887
-0.276853 -0.171141 0.756171
-0.271703 -0.170223 0.753499
-0.267612 -0.169953 0.753656
-0.263404 -0.169599 0.753412
-0.259452 -0.169404 0.753835
-0.254403 -0.168476 0.750962
-0.250153 -0.168059 0.75032
-0.245122 -0.167096 0.747206
-0.241239 -0.166899 0.747475
-0.23775 -0.166973 0.748921
-0.235081 -0.167634 0.752975
-0.232119 -0.168103 0.756145
-0.229664 -0.16896 0.761032
-0.22653 -0.169338 0.763736
-0.221796 -0.168511 0.760974
-0.217488 -0.167987 0.75954
-0.211972 -0.166496 0.753689
-0.208483 -0.166572 0.754899
-0.204728 -0.166436 0.755113
-0.200704 -0.166072 0.754263
-0.196518 -0.165558 0.752698
-0.192051 -0.164785 0.749919
-0.188006 -0.164351 0.748652
-0.184911 -0.164747 0.75114
-0.179961 -0.163473 0.745981
-0.174786 -0.16194 0.739608
-0.171141 -0.161791 0.73952
-0.166254 -0.160437 0.733899
-0.162245 -0.159891 0.731942
-0.158784 -0.159874 0.732381
-0.15556 -0.160099 0.733909
-0.152288 -0.160283 0.735231
-0.147358 -0.158692 0.728383
-0.143534 -0.158244 0.726755
-0.140214 -0.158343 0.727622
-0.137242 -0.158849 0.730344
-0.134038 -0.159107 0.731903
-0.130824 -0.159366 0.733453
-0.125288 -0.156733 0.721674
-0.121904 -0.156721 0.721941
-0.119227 -0.157644 0.726499
-0.115398 -0.157054 0.724067
-0.111669 -0.156568 0.722104
-0.106804 -0.154409 0.712405
-0.103154 -0.153924 0.710411
-0.099582 -0.153528 0.708809
-0.0964799 -0.153853 0.710529
-0.0931614 -0.153844 0.710695
-0.0897436 -0.153665 0.710061
-0.0853111 -0.151668 0.701014
-0.0820007 -0.151586 0.700806
-0.0782322 -0.150615 0.696479
-0.0752255 -0.151091 0.698828
-0.0717538 -0.150633 0.696853
-0.0680797 -0.149687 0.692608
-0.064161 -0.148083 0.685305
-0.0608968 -0.1479 0.684573
-0.0572993 -0.146843 0.679785
-0.0541588 -0.146902 0.680156
-0.051253 -0.147644 0.683684
-0.0480519 -0.147578 0.683461
-0.0447534 -0.147182 0.681704
-0.0414686 -0.146774 0.679886
-0.0385489 -0.147698 0.684229
-0.035107 -0.146607 0.679234
-0.0319701 -0.1467 0.679718
-0.0287584 -0.146432 0.678525
-0.0255 -0.145832 0.675785
-0.0224465 -0.146399 0.67845
-0.0192723 -0.146236 0.677728
-0.0160796 -0.145841 0.675924
-0.0129304 -0.145745 0.675499
-0.00980373 -0.145923 0.67634
-0.00666181 -0.145934 0.676405
-0.00349388 -0.144887 0.671558
-0.000374032 -0.144993 0.672055
0.00274203 -0.144658 0.670499
0.00585572 -0.144621 0.67032
0.00887605 -0.143104 0.66328
0.0119844 -0.143423 0.664741
0.0149853 -0.142588 0.660852
0.0180741 -0.142732 0.661494
0.0211198 -0.142543 0.660589
0.0240399 -0.141661 0.656468
0.0270054 -0.141216 0.654366
0.0300937 -0.141438 0.65535
0.0329148 -0.140479 0.650856
0.0359481 -0.140511 0.650948
0.0387806 -0.139814 0.647658
0.0415063 -0.138859 0.643172
0.0444204 -0.138621 0.641999
0.0472865 -0.138273 0.64031
0.0499708 -0.137466 0.636488
0.0528026 -0.137132 0.634853
0.0552224 -0.135821 0.628685
0.0581437 -0.135812 0.628544
0.0609134 -0.135468 0.626839
0.0630422 -0.133794 0.618981
0.0633439 -0.128559 0.594643
0.0648662 -0.126136 0.583309
0.0668587 -0.124785 0.576932
0.0690076 -0.123819 0.572329
0.0718591 -0.124138 0.573661
0.0748931 -0.124739 0.576281
0.0774965 -0.124606 0.575501
0.0803327 -0.124843 0.576423
0.083335 -0.125315 0.578417
0.0862164 -0.125582 0.57945
0.0883047 -0.124712 0.57523
0.0906333 -0.124222 0.572757
0.0935304 -0.124518 0.573892
0.0966232 -0.12505 0.576105
0.0992821 -0.125007 0.575655
0.101138 -0.123983 0.570674
0.104375 -0.12466 0.573512
0.107089 -0.124694 0.573378
0.110007 -0.124958 0.574286
0.112566 -0.124812 0.573292
0.115078 -0.124621 0.572082
0.118235 -0.125122 0.574031
0.120991 -0.125186 0.573953
0.123197 -0.12469 0.571299
0.126284 -0.125088 0.57272
0.128201 -0.124335 0.568855
0.130296 -0.123781 0.565889
0.132605 -0.12345 0.563926
0.135128 -0.123326 0.562891
0.138815 -0.124248 0.566613
0.140762 -0.123609 0.563187
0.143577 -0.123741 0.563262
0.146591 -0.124037 0.564058
0.149916 -0.12458 0.565955
0.153274 -0.125131 0.567859
0.154836 -0.124222 0.563121
0.157095 -0.123894 0.560995
0.160068 -0.124131 0.561407
0.162949 -0.124289 0.56144
0.164033 -0.123094 0.555342
0.165914 -0.122525 0.552057
0.16699 -0.121389 0.5462
0.168911 -0.120893 0.543212
0.171027 -0.12055 0.540891
0.173622 -0.120549 0.540087
0.17652 -0.120756 0.540187
0.179247 -0.120841 0.539718
0.183272 -0.121786 0.543061
0.185672 -0.121641 0.541512
0.18775 -0.121291 0.539034
0.189847 -0.120962 0.536636
0.192272 -0.12085 0.53518
0.195962 -0.121524 0.537181
0.199477 -0.122073 0.538606
0.201239 -0.12155 0.535279
0.206064 -0.122866 0.540032
0.209761 -0.123485 0.541693
0.213199 -0.123938 0.542602
0.217094 -0.124642 0.544593
0.217344 -0.123261 0.537479
0.22004 -0.123284 0.536494
0.223891 -0.123947 0.538286
0.227761 -0.124604 0.54005
0.230867 -0.124832 0.539958
0.233816 -0.124971 0.539491
0.237337 -0.12541 0.540332
0.239508 -0.125133 0.538113
0.240624 -0.124318 0.533617
0.243123 -0.124226 0.532271
0.247058 -0.124863 0.534083
0.250505 -0.125242 0.53483
0.253809 -0.125542 0.535289
0.255954 -0.125269 0.53336
0.258838 -0.125359 0.533042
0.262554 -0.125847 0.534476
0.265193 -0.125813 0.533768
0.267655 -0.125697 0.532786
0.270236 -0.125638 0.532129
0.272691 -0.125523 0.531314
0.274392 -0.125066 0.529139
0.27671 -0.124897 0.528265
0.278615 -0.124546 0.52671
0.280371 -0.124136 0.524992
0.281579 -0.123493 0.522377
0.284152 -0.123456 0.522404
0.28827 -0.124084 0.525335
0.289923 -0.123649 0.523849
0.289896 -0.122513 0.519465
0.292313 -0.12242 0.519582
0.293241 -0.121711 0.517156
0.280595 -0.11543 0.491092
0.276866 -0.112896 0.480987
0.279002 -0.112777 0.481218
0.281981 -0.112997 0.482963
0.284626 -0.113081 0.484185
0.283278 -0.111591 0.478712
0 0 0
0 0 0
-0.420859 -0.185437 0.801629
-0.414983 -0.184639 0.798443
-0.408886 -0.183725 0.794885
-0.404039 -0.183361 0.793825
-0.398404 -0.182627 0.791288
-0.393328 -0.182138 0.789921
-0.386786 -0.180953 0.78564
-0.383211 -0.181146 0.787443
-0.378753 -0.180921 0.787529
-0.373092 -0.18011 0.785151
-0.367967 -0.179543 0.783911
-0.361968 -0.178534 0.7808
-0.357693 -0.178361 0.78141
-0.353142 -0.178046 0.781447
-0.347319 -0.177075 0.778646
-0.341546 -0.176108 0.775889
-0.335924 -0.175197 0.773398
-0.330328 -0.174279 0.770884
-0.325858 -0.173941 0.770943
-0.320713 -0.173229 0.769351
-0.316104 -0.172794 0.768982
-0.31136 -0.172273 0.768225
-0.305335 -0.171022 0.764192
-0.300159 -0.170221 0.762142
-0.295674 -0.169797 0.761757
-0.291348 -0.169455 0.761713
-0.285706 -0.168328 0.758114
-0.281331 -0.167928 0.757749
-0.277031 -0.167563 0.757514
-0.271988 -0.166732 0.755136
-0.267352 -0.166131 0.753762
-0.263286 -0.165873 0.753906
-0.258678 -0.165262 0.752408
-0.253805 -0.164461 0.750004
-0.248933 -0.163638 0.747455
-0.244925 -0.163367 0.747388
-0.240894 -0.163071 0.747174
-0.236906 -0.162797 0.747021
-0.234418 -0.163561 0.751603
-0.230964 -0.163665 0.753122
-0.226351 -0.162937 0.750782
-0.222325 -0.162615 0.750271
-0.217141 -0.161422 0.7457
-0.214006 -0.161738 0.748062
-0.211086 -0.162229 0.751214
-0.206958 -0.161794 0.750039
-0.203398 -0.161794 0.750856
-0.199197 -0.161276 0.749233
-0.194652 -0.160455 0.746169
-0.188476 -0.158235 0.736557
-0.185205 -0.158416 0.738088
-0.181625 -0.158334 0.738364
-0.176637 -0.156999 0.732763
-0.172676 -0.15654 0.731223
-0.168836 -0.156174 0.730091
-0.164885 -0.15569 0.728378
-0.161891 -0.156107 0.730856
-0.158559 -0.156209 0.73184
-0.154867 -0.155953 0.731127
-0.149718 -0.154185 0.723294
-0.146694 -0.154575 0.725562
-0.142484 -0.153703 0.721885
-0.138711 -0.153271 0.720258
-0.136158 -0.154201 0.725005
-0.131334 -0.15254 0.717555
-0.127992 -0.152558 0.717981
-0.124512 -0.152409 0.717606
-0.121081 -0.152312 0.71746
-0.117308 -0.151767 0.715186
-0.112687 -0.150062 0.707428
-0.109484 -0.150199 0.708335
-0.105746 -0.149587 0.705697
-0.102417 -0.149533 0.705673
-0.0994817 -0.15007 0.70843
-0.0951876 -0.148523 0.701336
-0.0915077 -0.147859 0.698395
-0.088483 -0.148244 0.700397
-0.0847192 -0.147372 0.696452
-0.081081 -0.146658 0.69324
-0.0776797 -0.146331 0.691847
-0.0750028 -0.1474 0.697043
-0.0714334 -0.146731 0.694018
-0.0673982 -0.144998 0.685942
-0.063919 -0.144347 0.682982
-0.0600734 -0.142758 0.67557
-0.0567744 -0.142365 0.673806
-0.0539568 -0.143203 0.677865
-0.0507017 -0.142911 0.676571
-0.0474907 -0.142714 0.675716
-0.0440627 -0.14179 0.671415
-0.0408413 -0.141441 0.669829
-0.0375851 -0.140904 0.667346
-0.034513 -0.141023 0.667963
-0.0315579 -0.14169 0.671173
-0.0283453 -0.141221 0.668995
-0.0251847 -0.140927 0.667644
-0.0221133 -0.14112 0.668592
-0.0189083 -0.140384 0.665134
-0.0158236 -0.140429 0.665372
-0.0127697 -0.140834 0.66731
-0.00961853 -0.140083 0.66377
-0.00653783 -0.140134 0.664022
-0.00345156 -0.14005 0.663629
-0.000369043 -0.139979 0.663296
0.00269904 -0.139324 0.66019
0.00576554 -0.139327 0.660201
0.00880616 -0.13892 0.658261
0.0118908 -0.139238 0.659752
0.0147568 -0.137391 0.65098
0.0177849 -0.137424 0.651114
0.0207657 -0.137135 0.649718
0.0239184 -0.13791 0.653359
0.0269517 -0.1379 0.653276
0.029578 -0.136021 0.64433
0.0324626 -0.135566 0.642126
0.0354627 -0.135628 0.642373
0.0383329 -0.135223 0.640397
0.0412316 -0.13497 0.639135
0.0440738 -0.134578 0.637212
0.0469185 -0.134243 0.635551
0.0494262 -0.13304 0.629779
0.0522073 -0.132666 0.627926
0.0552534 -0.13297 0.629274
0.0576218 -0.131695 0.62314
0.0602087 -0.131017 0.619828
0.0626558 -0.130111 0.615431
0.0651115 -0.1293 0.611483
0.0676754 -0.128764 0.608823
0.0691687 -0.126316 0.597117
0.0718822 -0.126199 0.596427
0.0739411 -0.124984 0.590541
0.0763559 -0.124437 0.587801
0.0788123 -0.123993 0.585542
0.0805947 -0.122553 0.578575
0.08382 -0.12333 0.582063
0.0868964 -0.123846 0.584307
0.0895999 -0.123816 0.583961
0.0912067 -0.122316 0.576677
0.0939984 -0.122446 0.577068
0.0968538 -0.122649 0.577792
0.100079 -0.123297 0.580597
0.102428 -0.12286 0.578279
0.105456 -0.123238 0.579786
0.108329 -0.123421 0.580359
0.111213 -0.123608 0.580936
0.113737 -0.123395 0.579618
0.116423 -0.123363 0.57914
0.118921 -0.123138 0.577738
0.121729 -0.123238 0.577841
0.124522 -0.123317 0.577835
0.127085 -0.12317 0.576753
0.129198 -0.122603 0.573686
0.131642 -0.122367 0.572153
0.134922 -0.122902 0.574205
0.137706 -0.122972 0.574066
0.140208 -0.122793 0.572743
0.142151 -0.12214 0.569195
0.144058 -0.121481 0.565603
0.147191 -0.121862 0.566833
0.150027 -0.121987 0.566848
0.153339 -0.122488 0.56859
0.156698 -0.123009 0.570391
0.15726 -0.121353 0.562089
0.160815 -0.122024 0.564542
0.163496 -0.12202 0.563847
0.165006 -0.121158 0.559164
0.165536 -0.119613 0.551328
0.167324 -0.119013 0.54783
0.168674 -0.118124 0.54299
0.170889 -0.117859 0.541002
0.176598 -0.119975 0.549911
0.177702 -0.118946 0.54437
0.181914 -0.119998 0.548328
0.184414 -0.119906 0.547032
0.186838 -0.119768 0.545503
0.188983 -0.119458 0.54317
0.191487 -0.11938 0.541874
0.193508 -0.119007 0.539223
0.197991 -0.120138 0.543357
0.200832 -0.120256 0.542883
0.203952 -0.120536 0.543117
0.207308 -0.120946 0.543916
0.210399 -0.121193 0.543963
0.213527 -0.121455 0.544058
0.216628 -0.121696 0.544046
0.219334 -0.121711 0.543015
0.221699 -0.121539 0.541147
0.223357 -0.120988 0.5376
0.227124 -0.121579 0.539128
0.230749 -0.122081 0.54026
0.233655 -0.122196 0.539684
0.236028 -0.122033 0.537898
0.238473 -0.121909 0.536315
0.240022 -0.121336 0.532783
0.242747 -0.121363 0.531926
0.247121 -0.122205 0.534673
0.250177 -0.122385 0.534556
0.252548 -0.122228 0.533024
0.254922 -0.122077 0.53157
0.257645 -0.122094 0.530911
0.261412 -0.122601 0.532443
0.264379 -0.122725 0.532385
0.266605 -0.122507 0.530913
0.268573 -0.122176 0.529032
0.270955 -0.122038 0.528069
0.272182 -0.121387 0.524975
0.273885 -0.120959 0.522931
0.277208 -0.121248 0.524072
0.277516 -0.120226 0.519629
0.280987 -0.12058 0.521224
0.283035 -0.120322 0.52026
0.285327 -0.120172 0.519846
0.287581 -0.120009 0.519459
0.289092 -0.119542 0.517834
0.28933 -0.118561 0.51406
0.292694 -0.118868 0.515943
0.290872 -0.117081 0.508808
0.284375 -0.113461 0.493745
0.283248 -0.112027 0.488234
0.28359 -0.111195 0.485391
0 0 0
0 0 0
0 0 0
0 0 0
-0.420671 -0.181275 0.801373
-0.413549 -0.179951 0.795842
-0.40898 -0.179723 0.795283
-0.404838 -0.179679 0.795667
-0.399262 -0.178993 0.793322
-0.393966 -0.178418 0.791586
-0.388983 -0.177975 0.790539
-0.383136 -0.177124 0.787775
-0.378372 -0.176761 0.787272
-0.372719 -0.17597 0.784946
-0.366659 -0.174968 0.781745
-0.362484 -0.174853 0.782572
-0.357856 -0.174515 0.782462
-0.353543 -0.174325 0.783064
-0.348754 -0.173893 0.782622
-0.341675 -0.172297 0.776961
-0.336514 -0.171642 0.775556
-0.331122 -0.170853 0.773552
-0.325651 -0.170004 0.771281
-0.320498 -0.169303 0.769675
-0.315719 -0.168785 0.768894
-0.310908 -0.168237 0.767965
-0.305898 -0.167567 0.766458
-0.301436 -0.167183 0.766244
-0.295976 -0.16623 0.763391
-0.290197 -0.165071 0.759556
-0.285983 -0.164783 0.759695
-0.281289 -0.164207 0.758478
-0.275225 -0.162806 0.753405
-0.271581 -0.162818 0.754831
-0.267121 -0.162335 0.753928
-0.262833 -0.161944 0.753417
-0.258481 -0.161501 0.752629
-0.253197 -0.160456 0.748989
-0.248766 -0.159928 0.747721
-0.244493 -0.159489 0.746825
-0.239991 -0.158885 0.745119
-0.236498 -0.15894 0.746469
-0.232916 -0.158936 0.747509
-0.228455 -0.158324 0.74565
-0.224067 -0.157743 0.7439
-0.219204 -0.156803 0.740414
-0.21601 -0.157047 0.742483
-0.212787 -0.157277 0.744456
-0.208292 -0.156559 0.741911
-0.205585 -0.157183 0.745694
-0.2005 -0.155978 0.740772
-0.196487 -0.15558 0.73964
-0.191067 -0.154034 0.733013
-0.187274 -0.153766 0.732432
-0.183534 -0.153532 0.731986
-0.179786 -0.153282 0.731436
-0.175305 -0.152385 0.727768
-0.171305 -0.15188 0.725938
-0.167409 -0.151446 0.724427
-0.163651 -0.151124 0.72342
-0.158323 -0.149306 0.715226
-0.154622 -0.148978 0.714136
-0.152442 -0.150133 0.720138
-0.148952 -0.15002 0.720042
-0.144655 -0.149071 0.715911
-0.140887 -0.148635 0.71422
-0.137461 -0.148548 0.714184
-0.132979 -0.147286 0.70848
-0.129524 -0.147127 0.70806
-0.127244 -0.148328 0.71417
-0.124065 -0.148518 0.715402
-0.119872 -0.147472 0.71066
-0.116052 -0.146838 0.707884
-0.112193 -0.146116 0.704671
-0.108425 -0.145472 0.701816
-0.104778 -0.144955 0.699559
-0.101358 -0.144731 0.698701
-0.0974805 -0.143815 0.694489
-0.0943422 -0.143964 0.695411
-0.0909507 -0.143725 0.694441
-0.08759 -0.143518 0.693618
-0.0842516 -0.143333 0.69289
-0.0808189 -0.142967 0.691275
-0.0770952 -0.142034 0.686909
-0.0737857 -0.141816 0.685994
-0.0697234 -0.140067 0.677657
-0.0666983 -0.140334 0.679067
-0.0633213 -0.139851 0.676838
-0.0597429 -0.138848 0.67209
-0.0565795 -0.138753 0.671725
-0.0533912 -0.138583 0.670986
-0.0502559 -0.138537 0.670845
-0.0468385 -0.137656 0.666654
-0.0438536 -0.138011 0.668443
-0.0406458 -0.137666 0.666833
-0.0375092 -0.137525 0.666206
-0.0340991 -0.136265 0.660156
-0.0311294 -0.13669 0.662262
-0.0278835 -0.135863 0.658294
-0.0248744 -0.136127 0.659612
-0.0217389 -0.135677 0.657465
-0.0187672 -0.13627 0.660365
-0.0157338 -0.136559 0.661786
-0.0126501 -0.136445 0.661255
-0.00954217 -0.135913 0.658689
-0.00651874 -0.13665 0.662272
-0.00344298 -0.136627 0.662168
-0.000367682 -0.136393 0.661037
0.0026578 -0.134176 0.650289
0.00568485 -0.134354 0.651147
0.00864968 -0.133448 0.646749
0.0116921 -0.133898 0.648915
0.0146652 -0.133532 0.647126
0.0176611 -0.133463 0.646768
0.0207259 -0.133859 0.648662
0.0235848 -0.132994 0.644438
0.0264497 -0.132353 0.641298
0.0293489 -0.131997 0.639533
0.0323261 -0.132024 0.639622
0.0352782 -0.131953 0.639228
0.037975 -0.131012 0.634618
0.0409982 -0.131252 0.63572
0.0437936 -0.130779 0.633367
0.0466118 -0.13043 0.631605
0.0492218 -0.129574 0.627385
0.0519131 -0.129016 0.624603
0.0542317 -0.127639 0.617853
0.0567095 -0.126757 0.613493
0.0596268 -0.126895 0.614061
0.0624983 -0.126927 0.614112
0.0649765 -0.126193 0.610447
0.0676325 -0.12585 0.608672
0.0701947 -0.125368 0.606214
0.0725792 -0.124618 0.602454
0.0751531 -0.124237 0.60047
0.077091 -0.12287 0.593712
0.0799693 -0.123044 0.594395
0.0823996 -0.12254 0.591795
0.0845361 -0.121646 0.587303
0.0873033 -0.121688 0.587317
0.0901131 -0.121784 0.587586
0.0925085 -0.121331 0.585195
0.0947415 -0.120698 0.581921
0.0973602 -0.120577 0.58111
0.100001 -0.120489 0.580447
0.102556 -0.120306 0.579313
0.105277 -0.120321 0.579119
0.108068 -0.120414 0.579287
0.110696 -0.120325 0.578566
0.11333 -0.120247 0.577887
0.115958 -0.120166 0.577172
0.118577 -0.12008 0.576424
0.121689 -0.120485 0.578015
0.124566 -0.120646 0.578416
0.126265 -0.119683 0.573414
0.12902 -0.119739 0.573283
0.131578 -0.119615 0.57227
0.134102 -0.119466 0.57112
0.137064 -0.119705 0.571803
